ncols         237
nrows         45
xllcorner     2523152.90514
yllcorner     5596463.50758
cellsize      5
NODATA_value  -9999
621.24 621.2413 621.2742 621.3097 621.3483 621.4001 621.4596 621.5361 621.5167 621.5245 621.5813 621.5907 621.6438 621.6497 621.6446 621.7598 621.7645 621.7446 621.7557 621.7416 621.6744 621.6765 621.6743 621.6795 621.7188 621.6783 621.6155 621.5635 621.4823 621.4194 621.3861 621.3536 621.2359 621.1077 620.981 620.886 620.83 620.7919 620.6775 620.5787 620.457 620.3231 620.137 619.882 619.7921 619.6509 619.5077 619.3824 619.2037 619.0543 618.8649 618.6233 618.3896 618.17 617.9401 617.6836 617.4212 616.8751 616.411 616.0833 615.7042 615.4274 615.2054 614.9541 614.261 613.6693 613.2932 612.7486 612.2301 611.713 611.1603 610.6932 610.1727 609.6205 609.0693 608.4788 608.0056 607.5549 607.1463 606.6816 606.221 605.9076 605.3829 604.9544 604.3565 603.8702 603.035 602.6234 602.3275 601.8349 601.3768 600.9028 600.5062 600.0727 599.574 599.142 598.6298 598.0261 597.5341 597.0915 596.6947 596.2805 595.8525 595.2971 594.757 594.4525 594.0635 593.5992 593.2705 593.2819 593.3044 593.2861 593.4335 593.5401 593.749 594.0165 594.2517 594.6161 595.0692 595.7361 596.8051 598.0703 599.1597 600.2346 600.8665 601.467 601.9619 602.3553 602.8242 603.2598 603.6585 604.1265 604.5649 604.9601 605.3574 605.8356 606.4038 606.8237 607.2821 607.8055 608.2765 608.7042 609.0387 609.3593 610.0963 610.3392 610.7019 611.0901 611.5084 611.8336 612.15 612.434 612.6871 612.9646 613.2535 613.5672 613.9493 614.2194 614.5018 614.7886 615.0655 615.2722 615.4994 615.7059 615.9357 616.2986 616.5861 616.6385 616.7768 616.9594 617.1288 617.413 617.6544 617.8334 618.0831 618.2877 618.5371 618.7166 618.8997 619.1974 619.364 619.6564 620.1249 620.4669 620.7371 621.0378 621.2325 621.4278 621.5056 621.6611 621.8363 622.0239 622.1284 622.2782 622.4565 622.5808 622.7308 622.9011 623.0363 623.1304 623.2306 623.2959 623.4138 623.5145 623.6686 623.7557 623.7943 623.8058 623.8857 624.061 624.0749 624.0045 624.0266 624.0925 624.1279 624.109 624.1309 624.0893 624.0801 624.1115 624.1293 624.0735 623.9667 623.9117 623.863 623.9076 623.6783 623.5677 623.5829 623.4153 623.2557 623.2427 623.1089 622.8185 622.7433 622.7456 622.6879
621.3687 621.4305 621.4684 621.4733 621.5175 621.5714 621.6339 621.6606 621.6607 621.6447 621.7299 621.7806 621.8125 621.8314 621.8484 621.9223 621.9319 621.8969 621.9001 621.8897 621.8652 621.8616 621.8585 621.9065 621.923 621.8817 621.7834 621.7122 621.6487 621.5995 621.5651 621.4615 621.4047 621.2881 621.199 621.0596 620.9728 620.9074 620.8196 620.6919 620.5513 620.399 620.283 620.092 619.9474 619.8118 619.6708 619.554 619.4023 619.1685 618.9849 618.7972 618.5322 618.3344 618.1089 617.8031 617.2018 616.9777 616.6162 616.2615 615.9372 615.6753 615.2901 614.8884 614.3251 613.9197 613.5698 613.121 612.5555 612.0352 611.4243 610.9359 610.3873 609.8195 609.0539 608.6 608.1069 607.6435 607.223 606.8361 606.2589 605.8978 605.4441 604.9724 604.3919 603.9288 603.0551 602.7379 602.423 601.9028 601.4656 600.9426 600.5272 600.0651 599.6112 599.1548 598.6791 598.123 597.5638 596.9962 596.4149 596.1184 595.6763 595.1584 594.6085 594.3066 593.9296 593.6087 593.4636 593.5201 593.5946 593.5434 593.6192 593.6847 593.8532 594.1505 594.4279 594.759 595.1985 595.7396 596.692 597.7496 598.9436 600.0498 600.6895 601.3093 601.7958 602.2624 602.7043 603.2253 603.6255 604.0824 604.4878 604.907 605.3929 605.7994 606.3547 606.8255 607.3326 607.7818 608.2244 608.7284 609.119 609.3052 609.7811 610.3324 610.5988 610.9803 611.4415 611.8016 612.0767 612.3206 612.6145 612.9294 613.1955 613.5221 613.8742 614.1566 614.4888 614.7443 615.0508 615.2637 615.4689 615.6916 615.9587 616.284 616.5088 616.6445 616.8031 616.9559 617.2721 617.4744 617.7321 617.881 618.1127 618.3168 618.5519 618.6813 618.918 619.197 619.4634 619.8394 620.2475 620.5425 620.847 621.0625 621.2017 621.3855 621.4627 621.6949 621.8881 622.045 622.1718 622.3988 622.5616 622.6743 622.8636 623.0125 623.0585 623.179 623.2821 623.3694 623.5056 623.5703 623.6668 623.7833 623.8387 623.9442 624.0708 624.0916 624.1646 624.1154 624.1541 624.2175 624.2082 624.2174 624.2524 624.2101 624.2001 624.1813 624.1364 624.1166 624.0164 623.9553 623.9503 623.9651 623.7524 623.6386 623.6729 623.6751 623.4058 623.3099 623.2291 623.0146 622.8925 622.8251 622.7888
621.5127 621.5433 621.561 621.6072 621.6557 621.6814 621.7313 621.7901 621.8011 621.7949 621.8234 621.8953 621.9608 621.9939 622.0369 622.1092 622.0944 622.0801 622.0456 622.0206 622.0225 622.0509 622.0579 622.0662 622.0717 622.0026 621.891 621.8588 621.8281 621.7687 621.7062 621.5963 621.4971 621.4401 621.3535 621.2483 621.1311 621.0309 620.9186 620.8145 620.6549 620.5037 620.3778 620.2568 620.186 620.0203 619.8551 619.6771 619.5511 619.305 619.1528 618.9434 618.7635 618.5341 618.2276 617.6307 617.5489 617.0687 617.1469 616.5245 616.1418 615.7722 615.4369 615.0828 614.6309 614.2172 613.7794 613.36 612.8418 612.2053 611.6337 611.0765 610.5792 609.9531 609.1621 608.7678 608.2178 607.7248 607.3231 606.9273 606.4217 605.9567 605.4988 605.0058 604.4965 604.0373 603.145 602.7939 602.4882 601.9188 601.5034 601.0099 600.5883 600.1321 599.6412 599.1865 598.7323 598.2342 597.7279 597.212 596.5466 596.0748 595.6461 595.0908 594.5787 594.213 593.8704 593.6858 593.633 593.7491 593.7751 593.7893 593.814 593.8666 594.1993 594.4213 594.667 595.1185 595.4706 595.8618 596.5224 597.4257 598.5667 599.6143 600.3347 600.9433 601.5457 602.0265 602.5705 603.1324 603.5089 603.9949 604.4124 604.8692 605.3048 605.7146 606.2502 606.7926 607.2649 607.7471 608.1938 608.651 609.0127 609.4179 609.5259 610.0074 610.5806 610.9174 611.3329 611.7144 611.9638 612.2029 612.5157 612.8781 613.1678 613.5109 613.8521 614.1429 614.4415 614.7187 614.9991 615.2349 615.4604 615.7237 615.9219 616.2169 616.4598 616.6581 616.8093 617.1277 617.4562 617.5126 617.7166 617.897 618.1019 618.3524 618.5868 618.7858 619.0469 619.2551 619.6365 619.9659 620.3047 620.6132 620.8654 620.9973 621.1692 621.3502 621.5248 621.732 621.9549 622.0713 622.2466 622.498 622.6647 622.8032 622.9363 623.0931 623.1514 623.2524 623.3771 623.4884 623.5439 623.6528 623.79 623.8537 623.9731 624.103 624.1061 624.1339 624.2214 624.2564 624.3198 624.4152 624.4659 624.4313 624.4157 624.3295 624.2269 624.2328 624.1556 624.0981 624.0372 624.0072 623.9635 623.9558 623.8275 623.7328 623.7761 623.8613 623.6727 623.4764 623.3584 623.1835 623.1318 623.0203 622.8079
621.6976 621.723 621.7473 621.7595 621.7874 621.7944 621.8347 621.8908 621.9553 621.9976 622.0305 622.072 622.1803 622.2275 622.2418 622.2576 622.2656 622.2508 622.263 622.1672 622.1896 622.1912 622.1588 622.1381 622.1234 622.0549 622.043 622.0248 621.9794 621.9313 621.84 621.7463 621.619 621.5574 621.4948 621.3326 621.2788 621.1868 620.9988 620.8942 620.7795 620.6816 620.5505 620.4119 620.3868 620.2529 620.0019 619.8167 619.6191 619.4583 619.249 619.056 618.9059 618.5075 617.9034 617.9551 617.7114 617.3485 617.1375 616.7072 616.3572 616.0381 615.7146 615.3205 614.8893 614.451 613.9531 613.4815 612.94 612.3448 611.7684 611.2464 610.6827 610.1881 609.4327 608.8924 608.3192 607.7791 607.4279 606.9852 606.578 606.0437 605.606 605.1167 604.5891 604.1006 603.2334 602.8166 602.4896 601.8988 601.4739 601.0299 600.5911 600.2124 599.6958 599.2505 598.7318 598.2492 597.7657 597.2576 596.7126 596.2352 595.8569 595.3135 594.7587 594.399 594.0808 593.9474 594.0014 593.9399 593.989 593.9492 593.9578 594.1596 594.3857 594.6404 595.0512 595.4321 595.786 596.2715 596.6852 597.2748 598.1934 599.0933 599.857 600.542 601.1022 601.751 602.3546 602.8345 603.3679 603.7649 604.2773 604.7169 605.1803 605.6326 606.1438 606.6239 607.1687 607.6135 608.0018 608.4666 608.8287 609.2194 609.5996 609.7617 610.3711 610.9094 611.1702 611.5309 611.8748 612.1276 612.4788 612.8254 613.1588 613.5203 613.8563 614.152 614.4466 614.7138 614.9432 615.1996 615.4572 615.7326 615.9532 616.194 616.4543 616.6788 616.9407 617.2972 617.4761 617.5567 617.6808 617.8878 618.1186 618.3856 618.6377 618.8611 619.0998 619.3894 619.7182 620.0612 620.3679 620.7216 620.8819 620.9626 621.1124 621.381 621.5573 621.767 621.9957 622.1793 622.3867 622.6137 622.7667 622.9272 622.9771 623.2025 623.2781 623.3184 623.4731 623.5416 623.6118 623.8012 623.8641 623.9388 624.116 624.1242 624.1862 624.2291 624.2735 624.3439 624.3917 624.4946 624.5042 624.5193 624.528 624.4139 624.2838 624.2606 624.2175 624.1922 624.1491 624.0577 624.0037 623.9899 623.9339 623.8514 623.8702 623.9686 623.7538 623.5342 623.5105 623.3505 623.2426 623.1645 622.9677
621.8321 621.8755 621.8783 621.8657 621.8962 621.925 621.9765 622.0524 622.1057 622.1435 622.1965 622.2855 622.3518 622.4135 622.4442 622.441 622.4189 622.4279 622.412 622.3592 622.3613 622.3503 622.3032 622.2328 622.2173 622.1783 622.1649 622.1531 622.0919 622.0405 621.9916 621.8752 621.767 621.6927 621.563 621.4404 621.3883 621.3218 621.1259 620.9979 620.9202 620.8187 620.7515 620.5822 620.4987 620.4095 620.1093 619.9327 619.7873 619.5863 619.3668 619.252 619.1284 618.2379 618.361 618.0159 617.8615 617.5315 617.1931 616.8283 616.504 616.1623 615.8464 615.4795 615.0326 614.5749 614.0464 613.5648 613.0297 612.4308 611.8569 611.4172 610.7725 610.2905 609.6367 608.9944 608.3909 607.8712 607.5683 607.0582 606.6982 606.1827 605.7051 605.2572 604.6538 604.0153 603.169 602.8497 602.4779 601.9171 601.5197 601.0093 600.614 600.1874 599.7296 599.2141 598.7392 598.1758 597.7432 597.2231 596.7803 596.3762 595.9504 595.4947 594.9759 594.6429 594.3824 594.2109 594.0623 594.0373 594.178 594.2661 594.1616 594.4593 594.7203 594.9963 595.2704 595.675 596.0773 596.4985 596.9296 597.5298 598.1334 598.7662 599.3928 600.1008 600.7445 601.3408 601.9877 602.5806 603.1445 603.6073 604.1162 604.566 605.0345 605.4989 606.0028 606.468 607.0406 607.5037 607.8783 608.2689 608.6443 609.012 609.4087 609.7914 610.0604 610.6047 611.0698 611.3797 611.7769 612.0497 612.373 612.7448 613.1791 613.5474 613.8789 614.1595 614.4241 614.651 614.9229 615.1642 615.3941 615.6963 615.949 616.2148 616.45 616.7496 617.0408 617.2058 617.4055 617.5063 617.6351 617.8529 618.0878 618.3572 618.6124 618.9016 619.1582 619.5652 619.9263 620.2381 620.5432 620.7449 620.9056 621.0154 621.1633 621.408 621.5696 621.8272 622.0814 622.3064 622.5526 622.7148 622.8326 623.0028 623.0712 623.2239 623.327 623.3901 623.5776 623.6461 623.7337 623.9334 623.9878 624.0667 624.1242 624.1709 624.2427 624.2805 624.3614 624.3936 624.4598 624.5714 624.576 624.587 624.5548 624.4269 624.3239 624.3116 624.2806 624.2806 624.2133 624.1368 624.1059 624.0831 624.0452 623.9843 623.9932 624.0246 623.9347 623.699 623.5389 623.4371 623.3276 623.2563 623.083
621.993 622.0218 622.0175 622.0146 622.0518 622.0597 622.1265 622.2093 622.2924 622.3749 622.41 622.3856 622.4437 622.5302 622.5717 622.5959 622.6047 622.5903 622.5742 622.5548 622.5612 622.4906 622.4175 622.3567 622.3449 622.341 622.2929 622.2597 622.2336 622.1306 622.0714 621.9725 621.8759 621.7856 621.6349 621.5396 621.5009 621.4379 621.275 621.1243 621.0171 620.9587 620.8962 620.7139 620.605 620.4568 620.2313 620.0018 619.9026 619.7545 619.5588 619.4865 618.6107 618.6782 618.3687 618.1414 617.9545 617.634 617.2877 616.9276 616.6038 616.2625 615.8709 615.4979 615.1304 614.6414 614.1038 613.6057 613.0733 612.5054 612.0046 611.4838 610.8861 610.4035 609.7629 609.066 608.4726 608.0273 607.6403 607.2989 606.772 606.2732 605.744 605.2421 604.6209 603.9866 603.1474 602.8457 602.4487 601.9531 601.5131 601.0183 600.5708 600.139 599.6796 599.183 598.7518 598.166 597.7387 597.2958 596.8851 596.4716 596.0784 595.6169 595.169 594.813 594.4742 594.3114 594.2166 594.2174 594.1898 594.1982 594.4224 594.76 595.1323 595.3425 595.5834 595.7817 596.3235 596.7377 597.1573 597.647 598.1434 598.6946 599.2772 599.8462 600.5558 601.1856 601.8644 602.4825 603.0618 603.4567 603.9424 604.4137 604.8217 605.322 605.8109 606.2791 606.8275 607.3168 607.7631 608.0878 608.4127 608.771 609.2425 609.671 609.9709 610.2132 610.8585 611.1744 611.5986 611.9651 612.3219 612.731 613.1171 613.4991 613.7805 614.0723 614.3447 614.6036 614.8506 615.0816 615.3349 615.6155 615.8973 616.1974 616.4717 616.8049 617.0482 617.1901 617.2957 617.4444 617.5727 617.8445 618.1558 618.4118 618.686 619.0128 619.3558 619.7677 620.1486 620.3604 620.5627 620.707 620.955 621.1088 621.2314 621.4271 621.6595 622.0174 622.273 622.4327 622.6351 622.8071 622.9452 623.0936 623.1852 623.2834 623.4226 623.5468 623.6971 623.7566 623.8242 624.0162 624.0703 624.1725 624.1882 624.2689 624.3376 624.3692 624.4387 624.472 624.5244 624.6226 624.6216 624.5647 624.4628 624.4597 624.377 624.3328 624.3486 624.3834 624.3466 624.2698 624.2665 624.2219 624.2067 624.108 624.0602 624.0453 624.0668 623.8611 623.6739 623.5313 623.439 623.3735 623.2156
622.1154 622.1573 622.1884 622.1895 622.1928 622.2132 622.3156 622.4265 622.5118 622.5641 622.5547 622.5775 622.652 622.7169 622.73 622.7255 622.7089 622.7257 622.7049 622.7314 622.7583 622.6436 622.5728 622.5119 622.5131 622.5136 622.4858 622.4468 622.3333 622.253 622.164 622.0627 621.9625 621.8702 621.7831 621.6415 621.5901 621.5336 621.4673 621.2861 621.2215 621.1476 621.0195 620.8182 620.7107 620.5837 620.3417 620.0957 620.0034 619.9134 619.8095 619.0014 618.9628 618.8137 618.6888 618.2916 617.987 617.6774 617.3248 616.9764 616.687 616.3259 615.9842 615.5294 615.0994 614.6223 614.1509 613.6285 613.1744 612.6642 612.0499 611.5268 610.991 610.4199 609.8629 609.1595 608.602 608.1565 607.7995 607.4047 606.9058 606.2911 605.7707 605.1563 604.5319 603.7709 603.131 602.7989 602.3307 601.8438 601.4009 600.9764 600.5229 600.1031 599.6725 599.1783 598.7638 598.2872 597.7792 597.3878 596.9876 596.5931 596.194 595.6866 595.2776 594.8823 594.574 594.4631 594.3521 594.1733 594.1705 594.347 594.5696 595.0771 595.4407 595.7197 595.8016 595.901 596.5032 596.9124 597.3143 597.7407 598.1458 598.6434 599.1312 599.6662 600.3276 600.9421 601.6767 602.2857 602.8458 603.2792 603.7129 604.1324 604.5653 605.0225 605.5084 606.025 606.5146 607.0585 607.4683 607.8907 608.1848 608.5452 609.0195 609.4285 609.8464 610.0815 610.4265 610.9875 611.373 611.8374 612.22 612.6075 612.9612 613.3124 613.6267 613.9245 614.2604 614.5341 614.79 615.0002 615.3052 615.5599 615.9157 616.2017 616.5637 616.8313 616.9778 617.1147 617.2339 617.3912 617.5746 617.9321 618.2681 618.4937 618.8671 619.178 619.578 619.936 620.2578 620.3518 620.5181 620.6644 620.9535 621.1363 621.2723 621.6184 621.942 622.2353 622.401 622.5395 622.7018 622.8612 623.0199 623.1387 623.2789 623.4246 623.5791 623.5734 623.7673 623.8988 623.9626 624.0847 624.1932 624.2855 624.307 624.3898 624.4836 624.5081 624.5943 624.6218 624.6613 624.6608 624.6531 624.5561 624.4778 624.4933 624.5375 624.4813 624.4025 624.3768 624.4128 624.4442 624.469 624.4514 624.3803 624.3155 624.126 624.108 624.1646 624.0393 623.8244 623.694 623.5696 623.4739 623.3585
622.1844 622.2507 622.3066 622.3238 622.3954 622.4814 622.5673 622.6494 622.7064 622.7573 622.7521 622.7792 622.89 622.8899 622.8552 622.8572 622.8706 622.8488 622.8187 622.8816 622.8777 622.8344 622.7455 622.7263 622.7092 622.6209 622.5823 622.5347 622.4467 622.3217 622.2501 622.1501 622.0289 621.9578 621.8609 621.7496 621.658 621.6381 621.6313 621.4764 621.2852 621.1847 621.1026 620.9703 620.7877 620.6457 620.4324 620.2195 620.1438 620.0823 619.4952 619.1739 619.0601 619.0773 618.6846 618.4135 618.1464 617.7321 617.3675 617.0815 616.7603 616.3868 616.0243 615.5718 615.0801 614.6411 614.2332 613.6932 613.2193 612.7613 612.1519 611.576 611.0759 610.493 609.9324 609.3119 608.8199 608.2901 607.8759 607.417 606.9481 606.2425 605.6146 605.0214 604.429 603.625 603.1074 602.7563 602.2709 601.7706 601.3497 600.9794 600.5721 600.1028 599.6899 599.2327 598.7526 598.251 597.7878 597.3827 596.9992 596.6669 596.2281 595.7973 595.3348 594.9944 594.7463 594.6505 594.4095 594.2957 594.4082 594.5754 594.8156 595.3152 595.7375 596.0115 596.1455 596.2932 596.5733 596.9071 597.2712 597.7592 598.1578 598.5573 598.9351 599.4109 599.9846 600.6073 601.2383 601.8885 602.4127 602.8838 603.3746 603.7819 604.254 604.713 605.183 605.7034 606.1591 606.6468 607.0649 607.497 607.9598 608.3363 608.8102 609.1814 609.5856 610.0358 610.2063 610.6166 611.1423 611.6322 612.0196 612.4167 612.7554 613.1416 613.4688 613.7691 614.0472 614.4448 614.7146 614.9272 615.2543 615.607 615.9527 616.2377 616.6505 616.8199 616.925 617.041 617.1387 617.3624 617.6052 617.9988 618.2903 618.5739 619.0082 619.3156 619.7795 620.1143 620.2419 620.307 620.4669 620.7504 621.0031 621.1464 621.4727 621.7883 622.0622 622.3241 622.4503 622.6148 622.7725 622.896 623.0176 623.1426 623.3066 623.5644 623.6487 623.6262 623.7585 623.9775 624.1231 624.1599 624.2567 624.348 624.4337 624.5087 624.5769 624.6252 624.7414 624.7682 624.7246 624.6722 624.6838 624.6483 624.5824 624.6071 624.5955 624.5574 624.5668 624.5221 624.5495 624.558 624.5575 624.5266 624.4352 624.408 624.3864 624.3291 624.2347 624.1863 623.9906 623.8518 623.6771 623.5848 623.5473
622.3589 622.3611 622.423 622.5136 622.5862 622.6573 622.7006 622.795 622.885 622.9537 622.9662 622.994 622.9875 622.9686 622.9438 622.952 622.9773 622.949 622.8856 622.872 622.8447 622.9129 622.942 622.8821 622.7969 622.7089 622.6108 622.5732 622.4859 622.3836 622.301 622.2305 622.124 622.0703 622.0222 621.9097 621.804 621.8053 621.7115 621.6148 621.4248 621.2657 621.1419 620.9725 620.9136 620.7328 620.508 620.3611 620.292 620.0157 619.3489 619.3801 619.3668 619.0511 618.7828 618.5062 618.2275 617.7714 617.3956 617.2057 616.8692 616.4041 616.0599 615.5767 615.0901 614.7119 614.2708 613.7905 613.2811 612.7706 612.2344 611.6555 611.1158 610.5797 610.0247 609.432 608.9077 608.3796 607.8417 607.4015 606.8541 606.1537 605.536 604.8669 604.382 603.5941 603.0674 602.7082 602.2815 601.764 601.3293 600.8732 600.6537 600.0366 599.5571 599.0735 598.6186 598.1326 597.7292 597.3561 597.0396 596.643 596.2671 595.8501 595.3868 595.1577 594.9872 594.8165 594.5739 594.5868 594.6783 594.7604 595.0972 595.5486 595.9897 596.2331 596.4902 596.6968 596.8256 597.0067 597.2124 597.4355 597.7159 598.1307 598.6509 599.0935 599.6519 600.2223 600.8327 601.378 601.9165 602.3865 602.8504 603.336 603.8354 604.4041 604.8699 605.3651 605.8085 606.2795 606.6481 607.0798 607.6634 608.1318 608.5776 608.9838 609.3626 609.7966 610.216 610.3694 610.9059 611.4151 611.8261 612.1843 612.5837 612.9919 613.3616 613.6343 613.8837 614.1972 614.5991 614.8683 615.2188 615.6124 615.9261 616.2628 616.6286 616.7679 616.8278 617.0283 617.1208 617.3424 617.6628 618.0354 618.3087 618.7389 619.1068 619.5828 619.9166 620.1142 620.1956 620.2985 620.632 620.9083 621.1451 621.3716 621.7094 621.9509 622.2183 622.3592 622.5286 622.7138 622.8249 622.9562 623.0131 623.2404 623.4697 623.6859 623.7484 623.7233 623.8765 624.0736 624.218 624.2642 624.3018 624.3524 624.442 624.5919 624.6619 624.7581 624.848 624.7755 624.6736 624.6733 624.719 624.6888 624.7136 624.6983 624.6316 624.5528 624.7501 624.7713 624.6737 624.688 624.6552 624.6116 624.5203 624.4589 624.5087 624.4154 624.2874 624.2662 624.1411 623.9397 623.8024 623.6711 623.63
622.5258 622.5786 622.6427 622.7501 622.8159 622.8629 622.9393 622.9917 623.0709 623.143 623.1509 623.0992 623.0825 623.0966 623.0552 623.0378 623.0449 623.0072 622.9708 622.9932 623.0387 623.0602 623.0099 622.9583 622.8879 622.7952 622.6874 622.6016 622.5395 622.4769 622.4181 622.3176 622.2715 622.2062 622.1833 622.1013 621.9532 621.8677 621.7316 621.678 621.4999 621.3611 621.2659 621.0367 620.9479 620.8414 620.6163 620.5118 620.1691 619.6472 619.6454 619.5778 619.53 619.1523 618.8438 618.5546 618.2267 617.8497 617.4313 617.2288 616.9824 616.4128 616.0475 615.5568 615.1312 614.7442 614.2802 613.8351 613.3039 612.7579 612.2142 611.6559 611.1277 610.6027 610.0394 609.4537 608.894 608.2892 607.8083 607.2957 606.7061 606.0831 605.4171 604.7791 604.2513 603.4368 602.9949 602.655 602.2382 601.7249 601.2872 600.7675 600.6039 599.9807 599.4169 598.9556 598.4783 597.9615 597.5469 597.2596 596.871 596.5331 596.1991 595.7634 595.4713 595.3165 595.1399 594.9407 594.8286 594.8222 594.8384 594.9172 595.3327 595.7909 596.1851 596.5353 596.9302 597.2123 597.4503 597.6724 597.8656 598.0253 598.1974 598.4106 598.5244 598.8663 599.1909 599.793 600.3574 600.8737 601.372 601.8434 602.2446 602.8005 603.3097 603.9153 604.4638 604.9268 605.2916 605.648 606.1323 606.6211 607.2762 607.8522 608.2833 608.712 609.168 609.5571 609.9401 610.3377 610.6495 611.2642 611.6746 612.0477 612.4382 612.8343 613.1465 613.4542 613.7416 614.0479 614.4378 614.8204 615.2416 615.6367 615.9399 616.2511 616.5208 616.623 616.7365 616.9551 617.1152 617.3035 617.607 618.0642 618.4028 618.8746 619.2993 619.6872 619.9183 620.0917 620.1901 620.4803 620.7578 620.9773 621.2942 621.5864 621.9128 622.1288 622.312 622.4496 622.5895 622.6882 622.913 623.0528 623.2501 623.5414 623.654 623.7977 623.851 623.9011 623.9908 624.1604 624.3174 624.382 624.4626 624.5277 624.559 624.696 624.7531 624.8223 624.8683 624.8585 624.7443 624.697 624.7186 624.7238 624.7535 624.7855 624.7999 624.8746 624.9906 625.0325 624.9312 624.8187 624.7778 624.7669 624.6373 624.5285 624.5388 624.4434 624.3532 624.3337 624.2884 624.1414 623.9096 623.8148 623.7256
622.6459 622.7496 622.7988 622.8928 623.0258 623.0649 623.1329 623.1871 623.2877 623.2951 623.264 623.2309 623.1921 623.2253 623.2394 623.1552 623.1334 623.157 623.1824 623.224 623.2156 623.186 623.1181 623.0213 622.9487 622.9145 622.7712 622.6595 622.5997 622.5723 622.5541 622.4927 622.4133 622.3568 622.3046 622.1998 622.0748 621.9507 621.8399 621.7223 621.5954 621.4603 621.3662 621.1815 621.0767 620.8958 620.8057 620.7328 620.0516 619.9797 619.6521 619.6483 619.4981 619.2341 618.8998 618.5681 618.266 617.9113 617.4741 617.2286 616.9908 616.5052 616.0854 615.6577 615.2709 614.795 614.3145 613.7933 613.3143 612.7468 612.2438 611.6851 611.0913 610.6605 610.0516 609.438 608.8367 608.2632 607.7216 607.1381 606.6145 605.9583 605.3267 604.701 604.1219 603.2972 602.9586 602.6123 602.1907 601.7007 601.2974 600.8325 600.3743 599.7392 599.2509 598.7774 598.1666 597.7302 597.4169 597.0324 596.7579 596.417 596.0873 595.8428 595.6361 595.4503 595.2738 594.989 594.8853 594.9382 595.0616 595.2319 595.6232 596.1782 596.6594 597.0728 597.4329 597.7314 597.9769 598.1895 598.4525 598.6981 598.8782 599.054 599.1638 599.2167 599.5466 599.6514 599.8082 600.3011 600.7596 601.2133 601.6001 601.9924 602.5099 603.3003 603.9062 604.3422 604.7182 605.1422 605.6195 606.2272 606.8102 607.4286 607.9876 608.4254 608.8611 609.2856 609.7127 610.0443 610.5065 610.8713 611.4498 611.9417 612.2896 612.6223 612.8861 613.223 613.5381 613.8616 614.3486 614.8054 615.3084 615.6254 615.9452 616.2199 616.3923 616.5516 616.6673 616.8096 617.096 617.2949 617.5728 618.1459 618.5453 618.9252 619.4563 619.7301 619.9221 620.0975 620.2964 620.6317 620.8942 621.2004 621.4842 621.8127 622.0231 622.2053 622.3883 622.5344 622.6806 622.8743 623.0453 623.3004 623.5093 623.5594 623.7696 623.9091 624.0135 624.0311 624.0349 624.2376 624.4545 624.556 624.6288 624.6614 624.6971 624.77 624.816 624.8882 624.8669 624.8837 624.8839 624.8423 624.837 624.8385 624.853 624.8901 624.966 625.0406 625.0543 625.0616 625.1214 624.9633 624.9036 624.9121 624.8602 624.7515 624.6417 624.5383 624.4852 624.4379 624.3575 624.3171 624.115 623.9245 623.8497
622.8624 622.9597 623.0444 623.0809 623.126 623.1911 623.2692 623.3257 623.3631 623.3672 623.3524 623.3395 623.3226 623.3589 623.3715 623.3094 623.3448 623.4205 623.4374 623.4062 623.3531 623.2784 623.2086 623.097 623.0358 623.0076 622.9305 622.801 622.7715 622.7188 622.7194 622.6793 622.5999 622.5469 622.4161 622.3187 622.1545 622.0449 621.9309 621.8108 621.7036 621.5668 621.4072 621.2721 621.1943 621.0698 620.9819 620.3645 620.1595 620.1198 619.8264 619.7346 619.5298 619.2201 618.9114 618.6064 618.3038 617.9518 617.5215 617.1237 616.9193 616.5808 616.1584 615.7841 615.3567 614.8665 614.3875 613.785 613.3108 612.7709 612.2656 611.7516 611.1258 610.5536 609.8276 609.307 608.7492 608.2068 607.611 607.037 606.4943 605.8969 605.3136 604.6723 604.0677 603.2512 602.9245 602.619 602.1424 601.6302 601.1943 600.7193 600.186 599.5925 599.0738 598.5942 597.9859 597.6649 597.4003 597.0676 596.7755 596.413 596.1258 595.9617 595.79 595.5629 595.3085 595.0892 594.9867 595.1252 595.409 595.6075 596.0892 596.6993 597.2288 597.5897 597.9276 598.2236 598.4561 598.7517 598.9907 599.2164 599.47 599.6309 599.7461 600.0348 600.1056 600.181 600.0883 600.168 600.3187 600.6463 600.9761 601.4006 601.8123 602.4938 603.3079 603.7195 604.2232 604.6453 605.2067 605.8179 606.4235 606.9059 607.5327 608.0453 608.4753 608.837 609.3758 609.8787 610.2969 610.7137 611.0798 611.7272 612.0859 612.4045 612.657 612.9921 613.3818 613.7487 614.343 614.8511 615.306 615.6505 615.8735 616.08 616.3073 616.5148 616.7917 616.9476 617.0653 617.2764 617.7381 618.2655 618.6467 619.0153 619.5103 619.7019 619.8868 620.104 620.4039 620.7183 621.0401 621.3896 621.7081 621.9358 622.0897 622.3089 622.5334 622.7114 622.9031 623.079 623.2343 623.4551 623.6052 623.6628 623.8978 623.9965 624.0571 624.1464 624.1802 624.2893 624.5494 624.6216 624.676 624.7531 624.7925 624.8418 624.9026 624.9506 624.9338 624.9583 624.9695 624.966 625.0515 625.0918 625.08 625.062 625.107 625.1562 625.1798 625.1602 625.1622 625.0911 624.994 625.0039 625.0087 624.9482 624.835 624.723 624.623 624.53 624.4636 624.3517 624.3129 624.0995 623.9464
623.064 623.1677 623.2156 623.2278 623.2631 623.3517 623.3843 623.4337 623.4417 623.4311 623.4332 623.4347 623.4402 623.4523 623.4896 623.4918 623.5176 623.6052 623.6212 623.5654 623.4589 623.3575 623.276 623.1921 623.1299 623.0797 623.0475 622.9906 622.9033 622.85 622.8601 622.8187 622.7352 622.6197 622.4979 622.3689 622.2111 622.137 622.0538 621.9171 621.8235 621.6759 621.494 621.3314 621.3014 621.2365 620.7808 620.5344 620.4252 620.351 619.9979 619.8206 619.5035 619.2134 618.9225 618.6164 618.2539 617.8816 617.568 617.1154 616.8665 616.6494 616.2197 615.8422 615.4246 614.9472 614.4988 613.8701 613.2768 612.8167 612.1954 611.7189 611.1095 610.3765 609.7526 609.242 608.63 608.0598 607.5447 606.8854 606.4114 605.8183 605.1853 604.6774 604.0448 603.2432 602.9001 602.5479 602.0515 601.5781 601.0839 600.5994 600.105 599.5292 599.0075 598.58 598.0497 597.7114 597.4507 597.1395 596.8676 596.5374 596.2583 596.0314 595.8741 595.6472 595.342 595.1655 595.0936 595.4203 595.792 596.0491 596.7018 597.2573 597.704 598.1537 598.4102 598.6899 598.9623 599.2795 599.5365 599.7859 600.0235 600.2308 600.4257 600.5777 600.6625 600.7816 600.9181 600.9235 600.8207 600.9329 601.1668 601.5917 602.0107 602.352 603.062 603.2145 603.7352 604.231 604.747 605.2461 605.7365 606.2332 606.8879 607.4141 607.8672 608.3197 608.8689 609.6128 610.1063 610.5955 610.9905 611.527 611.8926 612.188 612.5333 612.8927 613.3205 613.759 614.2977 614.7656 615.2392 615.6414 615.8196 616.0217 616.2547 616.4548 616.7446 616.9705 617.1075 617.3778 617.9119 618.3918 618.6699 619.2175 619.4863 619.7073 619.9659 620.2477 620.5212 620.8588 621.2647 621.5111 621.7996 621.9781 622.1992 622.4733 622.6857 622.8943 623.0802 623.2876 623.4883 623.6021 623.6913 623.8161 623.9199 624.0402 624.1552 624.2333 624.3433 624.3856 624.6104 624.7092 624.7636 624.8261 624.8305 624.8573 624.9241 625.0142 625.0628 625.0801 625.0886 625.241 625.254 625.202 625.1338 625.1746 625.3912 625.4654 625.4056 625.3358 625.2917 625.244 625.103 625.0449 625.0279 624.9112 624.8569 624.8023 624.7314 624.6437 624.6151 624.5229 624.3831 624.2668 624.0666
623.2755 623.3014 623.3848 623.3837 623.4078 623.4568 623.459 623.4884 623.5126 623.5374 623.5184 623.5519 623.5615 623.6323 623.6675 623.6442 623.6627 623.6856 623.6835 623.6753 623.5406 623.3989 623.3383 623.3153 623.2813 623.1805 623.1401 623.0574 623.0092 622.9508 622.9245 622.8945 622.8022 622.6656 622.543 622.4644 622.3254 622.2267 622.1437 622.064 621.9227 621.7802 621.617 621.4718 621.4171 621.1698 620.8175 620.683 620.5893 620.3912 620.0806 619.8307 619.489 619.189 618.9547 618.5357 618.1985 617.8766 617.5665 617.1219 616.8405 616.6243 616.2403 615.8613 615.457 614.9743 614.5106 613.9316 613.3199 612.8078 612.3345 611.7137 611.0756 610.3801 609.7081 609.1307 608.5809 607.9026 607.4235 606.8135 606.3182 605.7604 605.1255 604.6051 603.9044 603.2551 602.8846 602.4154 601.9896 601.4966 601.017 600.5352 600.0219 599.4828 599.0612 598.6621 598.2021 597.8057 597.4929 597.1943 596.921 596.6638 596.4001 596.1193 595.9435 595.7617 595.481 595.2626 595.2922 595.7977 596.1898 596.7505 597.2881 597.8278 598.2599 598.6268 598.8922 599.2904 599.5645 599.8325 600.1215 600.3239 600.5747 600.7495 600.955 601.0385 601.135 601.236 601.3766 601.5159 601.6658 601.7583 601.9038 602.0861 602.4567 602.8429 603.1508 603.418 603.7064 604.0403 604.5645 604.8409 605.1968 605.6091 606.1193 606.8323 607.2861 607.7503 608.5105 609.3994 610.0306 610.4241 610.8845 611.4019 611.6834 612.0994 612.5095 612.858 613.2578 613.6973 614.1313 614.6537 615.0751 615.5115 615.8662 616.064 616.2615 616.4214 616.614 616.9459 617.2038 617.5511 618.022 618.4717 618.8167 619.2919 619.5014 619.7411 620.0142 620.3466 620.6481 621.0403 621.3679 621.5972 621.8113 622.0849 622.3672 622.5731 622.8488 623.0516 623.2655 623.5293 623.6217 623.6671 623.7358 623.828 623.9344 624.0924 624.2113 624.3514 624.5402 624.5074 624.6755 624.7994 624.8907 624.8837 624.8739 624.8979 625.0172 625.1152 625.1654 625.2067 625.2251 625.3599 625.3286 625.3024 625.262 625.492 625.5581 625.4531 625.3599 625.4464 625.417 625.297 625.2 625.1213 625.041 624.9363 624.8763 624.8632 624.8019 624.7639 624.777 624.7089 624.465 624.3515 624.2078
623.4105 623.4761 623.5099 623.5457 623.4929 623.5341 623.5722 623.5776 623.6336 623.6547 623.6524 623.6826 623.7359 623.7692 623.7745 623.7845 623.7635 623.7274 623.7234 623.6873 623.583 623.5262 623.4584 623.4666 623.4091 623.317 623.2397 623.2026 623.1826 623.1068 622.9858 622.9716 622.8784 622.7267 622.6185 622.52 622.4471 622.3392 622.299 622.1633 622.0708 621.9923 621.9374 621.5483 621.4538 621.1772 621.0048 620.7332 620.5932 620.4008 620.1177 619.845 619.4936 619.2167 618.935 618.4644 618.1186 617.8445 617.5228 617.1353 616.8299 616.6185 616.2587 615.8998 615.4145 614.9163 614.4741 613.9913 613.3133 612.7048 612.1978 611.5012 610.9747 610.3557 609.687 609.097 608.5258 607.7851 607.2646 606.7535 606.165 605.6186 604.9745 604.4982 603.8362 603.2575 602.8231 602.3693 601.8614 601.4342 600.9893 600.5446 600.0317 599.5599 599.0756 598.6658 598.3057 597.8864 597.5622 597.2201 596.9858 596.7261 596.5013 596.2321 596.1135 595.8661 595.6218 595.4108 595.6956 596.1798 596.7709 597.3416 597.8329 598.3571 598.7654 599.1938 599.5244 599.8303 600.1091 600.437 600.7831 600.9855 601.2374 601.4369 601.5305 601.6679 601.7772 601.8927 602.019 602.1423 602.3447 602.4275 602.5852 602.7668 603.0488 603.3907 603.7988 604.0161 604.2008 604.4651 604.7904 605.1548 605.4207 605.7236 606.0974 606.6249 607.1133 607.3956 607.963 608.7258 609.6002 610.3575 610.7394 611.2742 611.4425 611.9653 612.4683 612.8097 613.1599 613.587 614.0602 614.5247 614.9658 615.4339 615.8013 616.0831 616.2994 616.4312 616.6263 617.0089 617.3041 617.6412 618.1011 618.5358 618.8267 619.3321 619.5319 619.7583 620.134 620.4675 620.8604 621.2153 621.4482 621.6824 621.9798 622.2605 622.5247 622.7605 623.0151 623.1999 623.4686 623.6249 623.7102 623.7609 623.8122 623.8881 624.0715 624.2216 624.3055 624.4507 624.6689 624.7043 624.7723 624.8164 624.8533 624.8408 624.9095 624.9982 625.1345 625.2497 625.3479 625.361 625.3655 625.4183 625.5142 625.6373 625.2495 625.4247 625.6553 625.5938 625.2344 625.486 625.447 625.3401 625.2739 625.1991 625.1405 625.1091 625.1396 625.0838 624.9493 624.8891 624.89 624.8419 624.6959 624.5632 624.4086
623.5197 623.5665 623.6045 623.5527 623.5373 623.6096 623.6654 623.7151 623.7385 623.7766 623.8133 623.8379 623.856 623.8749 623.8743 623.8708 623.8092 623.7864 623.7862 623.7263 623.6642 623.6461 623.6025 623.5815 623.5754 623.4922 623.3856 623.3178 623.2742 623.2276 623.1366 623.0441 622.9454 622.8193 622.7021 622.6178 622.5508 622.4813 622.4639 622.3388 622.2047 622.176 622.184 621.5463 621.5783 621.3558 621.1118 620.7786 620.5776 620.3597 620.1088 619.8285 619.5273 619.2047 618.8624 618.4799 618.1537 617.8707 617.5342 617.1857 616.8443 616.6484 616.2784 615.8922 615.4486 614.959 614.4834 614.0009 613.3066 612.6152 612.0427 611.3178 610.8911 610.2387 609.5519 608.9948 608.3023 607.6517 607.157 606.644 606.0545 605.4247 604.8921 604.386 603.7101 603.2683 602.8055 602.261 601.8157 601.368 600.9811 600.5331 600.1224 599.5823 599.1091 598.7029 598.2994 597.9019 597.6053 597.2499 597.095 596.8317 596.5851 596.3524 596.1159 595.9424 595.6684 595.6992 596.1725 596.6644 597.2309 597.7932 598.3599 598.8704 599.289 599.6766 599.9899 600.381 600.7128 601.0386 601.3405 601.6163 601.8221 602.0388 602.1942 602.2716 602.4115 602.4738 602.5557 602.7562 602.9188 603.0478 603.1696 603.4236 603.7341 604.1008 604.3903 604.5716 604.9695 605.2166 605.3585 605.7924 606.0463 606.3652 606.6968 607.0488 607.4145 607.6281 607.7178 608.0484 608.7444 609.7149 610.5967 611.1082 611.5875 611.9141 612.4386 612.8219 613.143 613.5513 614.0559 614.4388 614.913 615.3601 615.7454 616.071 616.3263 616.4678 616.759 617.1519 617.4427 617.8591 618.1381 618.5085 618.7337 619.3209 619.52 619.9092 620.3257 620.6293 621.0649 621.3325 621.5938 621.8487 622.1426 622.4503 622.6901 622.8835 623.1022 623.3528 623.5192 623.6459 623.7317 623.8652 623.9465 624.0153 624.2263 624.4427 624.4929 624.5482 624.6702 624.808 624.8037 624.7932 624.9111 624.9091 625.0051 625.1443 625.3071 625.3672 625.3989 625.3881 625.4178 625.4579 625.6112 625.7686 625.4366 625.0957 625.6953 625.6564 625.5308 625.5389 625.4941 625.4058 625.3373 625.3186 625.215 625.1169 625.2182 625.2979 625.1183 625.0084 624.9723 624.9686 624.8779 624.7478 624.6368
623.5812 623.6157 623.606 623.6031 623.6263 623.6538 623.7087 623.8179 623.9355 623.9025 623.9081 623.9135 623.9274 623.9533 623.9558 623.9422 623.9064 623.8503 623.8492 623.8144 623.7814 623.7465 623.7137 623.7322 623.725 623.637 623.5403 623.4219 623.3151 623.2486 623.184 623.1161 623.0557 622.9343 622.8593 622.7775 622.6802 622.6077 622.5788 622.4787 622.3449 622.2329 622.092 621.6466 621.6998 621.2979 621.1417 620.8278 620.5595 620.3914 620.1302 619.8254 619.5663 619.1821 618.8432 618.4623 618.1467 617.8901 617.55 617.2216 616.8857 616.6259 616.2529 615.8046 615.4152 614.9323 614.4745 613.9681 613.2885 612.5894 612.0034 611.2598 610.7462 610.1124 609.4412 608.8312 608.1359 607.5167 607.0024 606.4557 605.8973 605.2957 604.8008 604.2808 603.5909 603.2236 602.7374 602.1807 601.7617 601.3525 600.9839 600.5464 600.155 599.6592 599.1317 598.6962 598.2419 597.8958 597.5831 597.3349 597.1868 596.9157 596.6987 596.5061 596.2933 596.0453 595.9758 596.1475 596.6825 597.1654 597.6404 598.3348 598.902 599.3198 599.6663 600.0773 600.4602 600.8537 601.2022 601.5172 601.8696 602.2186 602.5155 602.6703 602.8501 602.9714 603.1243 603.1911 603.2102 603.3466 603.4348 603.5186 603.7491 604.0634 604.3945 604.6928 604.9673 605.2392 605.4492 605.568 605.863 606.5625 607.0333 607.2523 607.5024 607.7757 608.0173 608.1565 608.0937 608.1935 608.6489 609.5472 610.4023 611.048 611.5762 611.961 612.3107 612.8509 613.2145 613.6182 614.0909 614.4608 614.9726 615.4559 615.8518 616.2283 616.4519 616.723 617.0529 617.3896 617.6793 618.056 618.1572 618.4336 618.7629 619.2553 619.6746 620.1171 620.485 620.8914 621.2648 621.5124 621.8104 622.0065 622.2954 622.6262 622.8487 623.0043 623.2477 623.4414 623.5546 623.6453 623.7186 623.9932 624.0906 624.1812 624.4108 624.5175 624.5576 624.5971 624.6964 624.7748 624.7469 624.8569 624.9405 625.0129 625.1434 625.3279 625.4503 625.4332 625.408 625.4875 625.5162 625.594 625.7382 625.8995 625.8577 625.506 625.7773 625.779 625.7338 625.7034 625.6027 625.5625 625.527 625.4725 625.4084 625.3047 625.395 625.4345 625.2595 625.1001 625.0511 625.0105 625.0555 624.9113 624.801
623.5909 623.6483 623.6969 623.6844 623.675 623.7327 623.8621 624.0157 624.0369 623.9885 623.9761 623.9929 624.0354 624.0645 624.0453 624.0031 623.9616 623.9238 623.9267 623.9337 623.9262 623.8774 623.8377 623.8216 623.7881 623.7059 623.606 623.5267 623.4132 623.3535 623.3289 623.2025 623.1222 623.0675 622.9631 622.9189 622.8436 622.7336 622.6536 622.5135 622.3748 622.304 622.01 621.8309 621.6436 621.3441 621.155 620.8845 620.6017 620.4065 620.1675 619.8319 619.5474 619.1732 618.8068 618.434 618.1011 617.8389 617.5319 617.2491 616.8866 616.6112 616.2237 615.7599 615.3605 614.8402 614.3801 613.7392 613.1868 612.5853 611.9065 611.2423 610.6212 609.9538 609.3357 608.6996 608.0095 607.42 606.8206 606.2407 605.7469 605.1892 604.6641 604.124 603.5023 603.1752 602.6693 602.1619 601.7403 601.3678 600.9795 600.5466 600.1216 599.6623 599.1479 598.6721 598.2326 597.8935 597.6735 597.4437 597.2302 597.0015 596.8496 596.6866 596.4677 596.3644 596.2501 596.5361 597.0754 597.4646 598.1343 598.8099 599.2722 599.6863 600.0304 600.4504 600.9015 601.2559 601.6156 601.9469 602.298 602.663 602.863 603.0773 603.2949 603.4697 603.6654 603.8345 603.9987 604.0032 604.2164 604.3629 604.5589 604.8927 605.2914 605.5131 605.6283 605.6617 605.739 606.0823 606.7313 607.437 607.8087 607.991 608.1851 608.4603 608.6749 608.8386 609.0623 609.1586 609.5661 610.1271 610.6691 611.1451 611.673 612.0724 612.4036 612.7999 613.2918 613.7917 614.215 614.6367 615.1384 615.6169 616.1193 616.4731 616.7792 616.9997 617.4082 617.6839 617.8506 618.0609 618.223 618.5335 618.9673 619.3992 619.8723 620.3099 620.7712 621.1375 621.4274 621.6548 621.9469 622.1997 622.4445 622.7952 622.9719 623.1979 623.4195 623.5148 623.6274 623.7105 623.8703 624.1108 624.2414 624.3486 624.4557 624.5641 624.6274 624.7708 624.8137 624.7369 624.6663 624.8137 624.9991 625.141 625.368 625.4777 625.5485 625.5259 625.5472 625.6227 625.7073 625.7094 625.837 625.9438 625.9227 625.9048 625.8854 625.9098 625.9164 625.8438 625.7352 625.6886 625.6771 625.6228 625.5535 625.4846 625.4336 625.409 625.3128 625.3063 625.3311 625.2924 625.1774 625.2269 625.163
623.6191 623.7035 623.715 623.7543 623.8312 623.9153 624.0323 624.0851 624.0847 624.0781 624.1215 624.1423 624.1264 624.1064 624.0902 624.0604 624.0123 624.0193 624.0234 624.0118 624.0043 623.9957 623.9051 623.8553 623.803 623.742 623.6456 623.5879 623.5284 623.4506 623.3954 623.3236 623.2049 623.1617 623.1067 622.9926 622.9222 622.8298 622.6887 622.5074 622.4014 622.3723 621.9431 621.9753 621.6072 621.3602 621.1576 620.8837 620.6506 620.3964 620.1059 619.8207 619.5042 619.187 618.7963 618.4545 618.1603 617.8031 617.5428 617.2551 616.9344 616.6131 616.2121 615.7946 615.353 614.7736 614.2892 613.5408 613.0024 612.4905 611.8534 611.2054 610.5497 609.8829 609.2374 608.5561 607.91 607.277 606.63 606.0356 605.5445 605.0204 604.5402 603.9435 603.4333 603.127 602.6302 602.2234 601.744 601.3468 600.9349 600.4877 600.0979 599.6458 599.1432 598.7136 598.3328 597.9955 597.7864 597.5409 597.2853 597.1053 596.9984 596.8907 596.5602 596.5011 596.5568 596.8563 597.2595 597.8618 598.6033 599.1849 599.5714 599.9867 600.3575 600.8344 601.2384 601.5892 601.9611 602.2828 602.6864 602.9238 603.1927 603.4938 603.6831 603.8403 604.0511 604.241 604.3848 604.5943 604.7252 604.9061 605.1738 605.5096 605.8858 606.1578 606.3876 606.5716 606.9703 607.4179 607.8744 608.2184 608.532 608.809 609.0302 609.2148 609.4547 609.7574 609.953 610.1227 610.3027 610.7076 611.0674 611.4637 611.842 612.2403 612.6464 612.9291 613.4797 613.9143 614.369 614.8632 615.3521 615.9011 616.3999 616.8158 617.0574 617.2906 617.5987 617.7701 617.9041 618.1536 618.3571 618.7874 619.2022 619.6693 620.1215 620.5097 621.0819 621.3474 621.5665 621.7872 622.1066 622.3624 622.592 622.9398 623.2172 623.3782 623.447 623.5538 623.6928 623.8199 624.0168 624.1917 624.3303 624.4173 624.5925 624.6879 624.7553 624.8505 624.8553 624.9661 624.9854 624.9827 625.1285 625.3373 625.5433 625.5772 625.6475 625.6096 625.7037 625.762 625.811 625.8779 625.9117 625.939 625.9543 625.9752 625.9769 625.9849 626.0073 625.9554 625.9057 625.8815 625.8505 625.665 625.6546 625.7033 625.672 625.6166 625.5833 625.588 625.5759 625.5982 625.4867 625.343 625.3339
623.7219 623.798 623.8757 623.9619 624.0318 624.0566 624.0947 624.1472 624.1508 624.1532 624.175 624.1818 624.1923 624.1465 624.1277 624.1393 624.143 624.1091 624.1132 624.1399 624.0836 624.0732 624.0405 623.9194 623.8412 623.7723 623.7189 623.6621 623.6063 623.5851 623.5486 623.419 623.3574 623.3212 623.2537 623.1246 622.9739 622.8827 622.6874 622.5613 622.47 622.2516 622.076 621.7249 621.4766 621.3638 621.109 620.8303 620.5492 620.2859 620.0173 619.732 619.4436 619.1489 618.7426 618.4102 618.1708 617.83 617.4993 617.2906 616.9988 616.6235 616.2826 615.8102 615.2531 614.7527 614.1692 613.4418 612.8501 612.348 611.6768 611.0952 610.4861 609.8048 609.2018 608.5131 607.8411 607.1121 606.4873 605.8882 605.4166 604.9048 604.4521 603.8894 603.3742 603.1231 602.6428 602.1942 601.7943 601.3839 600.9052 600.4205 600.0352 599.5759 599.1409 598.7087 598.3806 598.0973 597.8138 597.5851 597.4409 597.3424 597.1783 597.0534 596.7527 596.7328 596.915 596.9972 597.4553 598.2358 598.9695 599.4799 599.8988 600.2983 600.6897 601.1149 601.511 601.9106 602.2615 602.6569 602.9033 603.231 603.4991 603.7654 603.9756 604.1848 604.3683 604.5579 604.7354 604.8915 605.0782 605.4105 605.7797 606.1359 606.5947 606.9718 607.2336 607.5416 607.8636 608.2048 608.5072 608.7885 609.1067 609.3822 609.6586 609.8574 610.0634 610.2953 610.4675 610.53 610.9984 611.3489 611.54 611.8398 612.1658 612.5131 612.8479 613.1923 613.6282 614.0336 614.6376 615.1505 615.6353 616.1988 616.733 617.0798 617.3018 617.5457 617.7042 617.9227 618.1232 618.2929 618.603 619.0786 619.524 619.9849 620.3547 620.8128 621.3057 621.4932 621.7161 621.9615 622.2728 622.4791 622.7841 623.0454 623.2245 623.3753 623.4306 623.592 623.7614 623.8947 624.1782 624.3345 624.4207 624.5539 624.7519 624.788 624.875 624.9167 624.9268 625.0553 625.2066 625.2881 625.2961 625.4877 625.5787 625.6978 625.7097 625.798 625.8433 625.8909 625.9136 625.9644 626.0116 626.0551 626.1123 626.0896 626.112 626.1472 626.1525 626.0946 626.0417 626.015 625.9796 625.892 625.6938 625.8112 625.7917 625.7338 625.7677 625.8283 625.845 625.7321 625.6672 625.492 625.4958
623.9719 624.0043 624.0665 624.1157 624.162 624.1633 624.1788 624.2192 624.2191 624.2257 624.241 624.2546 624.2594 624.2328 624.2518 624.2737 624.2766 624.2869 624.2827 624.2943 624.2227 624.097 624.0212 623.9866 623.928 623.8849 623.7978 623.7476 623.6578 623.6637 623.6583 623.6147 623.5304 623.4575 623.3705 623.2213 623.03 622.8652 622.7097 622.6119 622.5071 622.1486 622.0876 621.6632 621.5087 621.3216 621.0417 620.7171 620.4125 620.0673 619.8278 619.5261 619.3112 619.0665 618.7068 618.451 618.171 617.873 617.5828 617.366 616.9901 616.6017 616.1715 615.6679 615.1071 614.551 614.0112 613.3953 612.7496 612.1849 611.5857 611.0556 610.3525 609.7366 609.0381 608.3383 607.6647 607.0157 606.3343 605.736 605.3128 604.8062 604.3336 603.8578 603.3692 603.1246 602.6442 602.1874 601.7917 601.3691 600.8932 600.3909 599.9824 599.5231 599.0619 598.6808 598.4389 598.2172 597.8924 597.671 597.6038 597.5502 597.3977 597.2142 597.1379 597.0453 597.2369 597.28 597.6911 598.4607 599.276 599.802 600.2876 600.7095 601.0756 601.4404 601.8626 602.2241 602.5727 602.8688 603.1573 603.4531 603.7615 604.0225 604.2051 604.4461 604.6324 604.8414 605.0599 605.3165 605.6407 605.9752 606.4406 606.7953 607.2801 607.5848 607.8094 608.0742 608.4233 608.7554 609.0107 609.3173 609.5668 609.8047 610.0416 610.2586 610.4331 610.6028 610.7338 611.107 611.3995 611.6686 611.9168 612.1574 612.467 612.7916 613.1047 613.4948 613.8499 614.3085 614.8915 615.4789 616.0338 616.5498 617.0889 617.3994 617.538 617.5599 617.7856 618.0618 618.3503 618.5931 618.9832 619.4173 619.832 620.2711 620.6072 621.0712 621.4173 621.6502 621.8614 622.0787 622.3694 622.6956 622.9224 623.1257 623.2826 623.4059 623.4762 623.7003 623.8 624.028 624.3254 624.4074 624.6741 624.8029 624.8667 624.8801 624.9573 624.9835 625.0109 625.1828 625.3836 625.4819 625.5034 625.6271 625.7335 625.7899 625.8205 625.8698 625.9513 625.9435 625.9828 626.0345 626.0824 626.1619 626.2174 626.2448 626.3084 626.2756 626.2441 626.2469 626.2069 626.1723 626.1152 626.1174 626.1418 626.0124 625.9628 625.921 625.9803 626.0427 625.9786 625.8709 625.7762 625.6617 625.5836
624.069 624.1162 624.1461 624.1733 624.1871 624.176 624.2009 624.257 624.2912 624.3233 624.342 624.3293 624.2969 624.3585 624.3683 624.3716 624.363 624.3517 624.3799 624.3312 624.2369 624.1194 624.083 624.0749 624.0238 623.9342 623.881 623.7914 623.8011 623.8815 623.768 623.6755 623.5661 623.4827 623.3785 623.2521 623.0551 622.8513 622.782 622.6125 622.4139 622.2723 622.006 621.699 621.5651 621.3271 621.0272 620.7059 620.2668 619.8823 619.6367 619.4155 619.2372 619.1052 618.7889 618.5368 618.2618 617.9927 617.6699 617.3358 616.9412 616.5464 616.0208 615.4657 614.9208 614.4036 613.9071 613.3228 612.6381 612.0308 611.5433 610.9576 610.2944 609.6349 608.8715 608.179 607.4448 606.8388 606.2213 605.6568 605.17 604.677 604.2183 603.8236 603.3639 603.1404 602.6417 602.1638 601.7366 601.3701 600.8682 600.369 599.9065 599.4442 599.0478 598.7164 598.4503 598.2723 598.0566 597.8907 597.7897 597.7148 597.5974 597.5184 597.5055 597.5233 597.5268 597.5137 597.8901 598.6844 599.4801 600.0998 600.6475 600.9781 601.3524 601.7631 602.1713 602.5225 602.8817 603.0724 603.4069 603.7257 604.0417 604.2467 604.4454 604.7151 604.9646 605.1937 605.4432 605.7802 606.1072 606.6143 607.0289 607.4539 607.7767 608.051 608.2377 608.5908 608.8314 609.055 609.4013 609.6586 609.9016 610.1516 610.4399 610.5892 610.7148 610.9111 611.1312 611.4391 611.6826 611.9488 612.2137 612.4948 612.8011 613.1032 613.3714 613.8097 614.2518 614.7518 615.1987 615.8778 616.4248 616.9168 617.3314 617.4935 617.5393 617.6317 617.8738 618.157 618.6237 619.0477 619.4325 619.7907 620.1769 620.5471 620.9509 621.2028 621.5051 621.8067 622.0015 622.2101 622.587 622.8602 623.0607 623.2542 623.3763 623.4948 623.5633 623.8044 623.9652 624.2805 624.3561 624.5313 624.7009 624.8 624.8981 624.8402 624.9254 624.9973 625.2814 625.4902 625.5967 625.634 625.6346 625.8217 625.9185 625.9114 625.943 626.0105 626.066 626.0974 626.1291 626.1906 626.1891 626.2766 626.285 626.3739 626.4136 626.353 626.3261 626.3046 626.3087 626.2734 626.2782 626.2589 626.2064 626.1031 626.0876 626.1369 626.149 626.1154 626.0908 626.0806 625.9902 625.8789 625.7843
624.1425 624.194 624.2017 624.2158 624.2034 624.2763 624.2994 624.3264 624.3816 624.3777 624.3789 624.3489 624.3801 624.4554 624.4854 624.4607 624.4462 624.3952 624.3807 624.3375 624.2709 624.1971 624.1718 624.141 624.0977 623.9963 623.9454 623.96 623.9981 623.8965 623.7922 623.7166 623.6025 623.4854 623.3888 623.2817 623.0922 622.932 622.8409 622.6941 622.3968 622.2386 622.0209 621.7123 621.598 621.2955 621.0089 620.7461 620.2958 619.8789 619.6153 619.4032 619.2816 619.1334 618.9227 618.63 618.329 618.0722 617.8043 617.4894 616.8812 616.3848 615.8593 615.3582 614.801 614.2528 613.6927 613.1608 612.522 612.0128 611.4147 610.7828 610.2265 609.5118 608.6653 607.9849 607.2983 606.6712 606.1213 605.6359 605.0424 604.6005 604.1403 603.763 603.3725 603.12 602.5989 602.1414 601.7155 601.3143 600.8077 600.3405 599.8643 599.4108 599.1129 598.7309 598.5146 598.4123 598.2669 598.0767 597.9877 597.8861 597.8639 597.9042 597.8663 597.7433 597.6891 597.733 598.1858 598.9466 599.7239 600.3759 600.9268 601.2521 601.648 602.0641 602.4807 602.8291 603.1092 603.396 603.7622 604.0653 604.2992 604.5248 604.7504 604.9922 605.2911 605.5876 605.8673 606.2021 606.683 607.0247 607.5185 607.8906 608.1703 608.4026 608.6007 608.7844 609.026 609.3954 609.7318 610.0029 610.2737 610.4995 610.7504 610.8883 611.0329 611.2488 611.5218 611.7961 611.9929 612.3011 612.5438 612.8381 613.0858 613.3763 613.7119 614.1597 614.6213 615.0812 615.6105 616.1571 616.6709 617.1318 617.3759 617.5122 617.5842 617.7286 618.0007 618.3979 618.9312 619.2878 619.7499 620.1229 620.5123 620.793 621.1074 621.4093 621.6987 621.9417 622.1937 622.3405 622.7759 622.9292 623.2296 623.3723 623.4711 623.5696 623.7277 623.954 624.1912 624.3134 624.467 624.6315 624.6859 624.7815 624.8584 624.8315 625.0049 625.2408 625.4462 625.6158 625.7221 625.7333 625.7697 625.8422 625.9905 626.0913 626.0995 626.1356 626.1572 626.2095 626.2281 626.2571 626.3405 626.3977 626.4874 626.5344 626.4497 626.439 626.4111 626.3889 626.3821 626.3621 626.3362 626.2925 626.2861 626.2844 626.2845 626.3118 626.2587 626.2349 626.2249 626.184 626.1038 626.0695 625.947
624.1535 624.1769 624.2125 624.2752 624.3027 624.3636 624.3493 624.4352 624.4489 624.423 624.437 624.4428 624.453 624.4986 624.5663 624.6014 624.5624 624.4644 624.3991 624.396 624.3671 624.3248 624.2493 624.1951 624.1588 624.1393 624.1427 624.0818 624.0147 623.9587 623.9077 623.7511 623.5698 623.4827 623.4077 623.3138 623.1259 623.0038 622.9073 622.6597 622.4944 622.283 621.9901 621.7488 621.5976 621.2977 621.064 620.7444 620.3919 620.045 619.6972 619.491 619.3235 619.1774 618.9824 618.649 618.3492 618.1086 618.186 617.017 616.9433 616.2451 615.701 615.2061 614.662 614.1587 613.5551 612.9702 612.374 611.8992 611.2565 610.576 609.9724 609.3049 608.5191 607.8039 607.0327 606.484 606.0376 605.5372 605.0211 604.5775 604.0724 603.7254 603.388 603.0883 602.6752 602.1217 601.6238 601.2169 600.7429 600.2339 599.7926 599.4175 599.1453 598.8264 598.6072 598.537 598.4076 598.2179 598.0955 598.0521 598.0153 597.997 598.046 597.9288 597.8132 597.9562 598.5029 599.2039 599.9703 600.6151 601.1229 601.5533 601.9461 602.3352 602.7684 603.1764 603.4492 603.7767 604.0892 604.3314 604.535 604.7355 604.9507 605.3088 605.617 605.9333 606.2336 606.7568 607.1488 607.4816 607.838 608.1741 608.4028 608.7325 608.8591 609.0933 609.4484 609.7962 610.1788 610.4682 610.6715 610.873 611.0227 611.2023 611.4124 611.6103 611.859 612.0618 612.37 612.6711 612.9006 613.1433 613.4075 613.7416 614.1024 614.4578 614.9351 615.4627 616.0081 616.3735 616.8233 617.2232 617.3895 617.5007 617.6329 617.9241 618.2872 618.7825 619.2147 619.7257 620.076 620.4197 620.6996 620.9573 621.2997 621.5898 621.8458 622.124 622.3509 622.5263 622.8008 623.0936 623.3168 623.4663 623.5549 623.7018 623.9442 624.0765 624.2145 624.4008 624.5603 624.6285 624.6877 624.863 624.9022 624.9756 625.2433 625.4453 625.6029 625.72 625.7781 625.8096 625.8698 625.8881 626.0525 626.145 626.1625 626.1812 626.2955 626.3516 626.3154 626.3732 626.5148 626.5851 626.5157 626.5441 626.4973 626.5035 626.4814 626.4631 626.4553 626.4672 626.4905 626.4979 626.4901 626.4581 626.461 626.5474 626.5682 626.5306 626.4069 626.4296 626.3375 626.2778 626.1418
624.2704 624.2163 624.254 624.381 624.4294 624.4119 624.4512 624.5025 624.5141 624.4794 624.5248 624.5757 624.6016 624.6395 624.652 624.6656 624.5956 624.5172 624.4652 624.4554 624.4366 624.4251 624.3844 624.2978 624.2537 624.2375 624.1856 624.1608 624.1044 624.0183 623.9305 623.7701 623.6419 623.525 623.4121 623.3054 623.1531 623.0515 622.9717 622.6076 622.5864 622.2382 621.9451 621.7534 621.5927 621.3156 621.0781 620.741 620.5662 620.1672 619.8641 619.6006 619.3958 619.1907 618.9017 618.6454 618.3629 618.162 617.7831 616.7186 616.986 616.0864 615.5228 615.0208 614.4742 614.0125 613.4132 612.8594 612.2709 611.7447 611.2056 610.4753 609.7917 609.0664 608.2762 607.6318 606.8394 606.3384 605.9036 605.4468 605.001 604.5049 604.1584 603.7623 603.4032 603.1364 602.7177 602.1232 601.5699 601.0946 600.5648 600.1354 599.7702 599.4466 599.1417 598.9189 598.687 598.5992 598.4733 598.3753 598.2808 598.1673 598.0697 598.0941 598.1347 598.0937 597.9043 598.1223 598.6805 599.4532 600.1977 600.8065 601.3618 601.8641 602.2788 602.709 603.1595 603.5491 603.7729 604.0764 604.2659 604.4203 604.7154 604.934 605.2534 605.6477 605.9734 606.3226 606.799 607.2166 607.4537 607.8851 608.2094 608.4153 608.6546 608.9203 609.2074 609.5039 609.9078 610.3133 610.619 610.8218 610.9846 611.144 611.3624 611.5334 611.7852 612.0191 612.1888 612.4019 612.6303 612.9017 613.1803 613.4806 613.7645 614.1103 614.4822 614.8635 615.2965 615.8269 616.2721 616.4953 616.8902 617.2782 617.428 617.6431 617.8595 618.2712 618.6912 619.1797 619.6702 620.0313 620.2959 620.613 620.9144 621.1847 621.5289 621.759 622.0313 622.241 622.4747 622.6534 622.9479 623.2495 623.3621 623.5244 623.6212 623.85 623.9972 624.1174 624.2566 624.4454 624.6077 624.6934 624.8054 625.0641 625.0908 625.2029 625.3792 625.5505 625.7168 625.7744 625.8801 625.9308 626.005 626.0224 626.0837 626.2064 626.2151 626.3069 626.3796 626.4751 626.459 626.6058 626.698 626.7611 626.6798 626.5664 626.5752 626.5845 626.6066 626.5992 626.6409 626.6395 626.6067 626.6434 626.6161 626.5607 626.6049 626.7025 626.8694 626.8817 626.7474 626.6376 626.6146 626.6425 626.4933
624.3452 624.3692 624.3687 624.4268 624.5015 624.5306 624.5649 624.598 624.596 624.5972 624.6513 624.6929 624.7228 624.7298 624.7021 624.6818 624.6385 624.576 624.5966 624.5687 624.4823 624.4681 624.4641 624.4199 624.3907 624.4203 624.3722 624.2336 624.1992 624.0587 623.9219 623.7823 623.6393 623.541 623.415 623.2745 623.172 623.099 622.942 622.8297 622.4982 622.2051 622.0112 621.8198 621.5725 621.3441 621.1034 620.9995 620.5448 620.2828 619.951 619.6889 619.4567 619.151 618.8963 618.6363 618.2722 617.906 617.5308 617.2767 616.592 615.8797 615.3554 614.7828 614.2835 613.811 613.2708 612.6593 612.1417 611.6859 611.0025 610.357 609.6208 608.8113 608.082 607.4119 606.6807 606.1542 605.7121 605.2441 604.8182 604.4503 604.1186 603.7358 603.3983 603.1408 602.6877 602.0837 601.386 600.8776 600.353 599.9232 599.6224 599.3653 599.2065 599.0222 598.8738 598.7104 598.6484 598.6318 598.5469 598.4608 598.376 598.389 598.3186 598.2009 598.0542 598.2332 598.8029 599.526 600.2211 601.013 601.6886 602.1791 602.5947 602.9726 603.4686 603.7061 603.9423 604.1653 604.3141 604.6777 604.9877 605.2958 605.6916 606.1161 606.4636 606.7704 607.2169 607.4957 607.9814 608.2733 608.4952 608.7266 609.0308 609.3112 609.5852 609.879 610.3931 610.7279 610.9403 611.098 611.2549 611.4839 611.6453 611.9102 612.122 612.2795 612.4511 612.7164 612.9576 613.2269 613.5328 613.8977 614.1922 614.5726 614.9099 615.3052 615.6627 616.0461 616.3804 616.726 617.0366 617.41 617.7802 618.0134 618.2101 618.6524 619.1122 619.5431 619.9376 620.1703 620.4706 620.7798 621.0614 621.3097 621.6129 621.9172 622.1489 622.364 622.5512 622.7636 623.0967 623.3078 623.4644 623.61 623.7121 623.8707 624.0958 624.2145 624.3305 624.491 624.6654 624.743 624.796 625.068 625.1915 625.3922 625.5914 625.6817 625.7778 625.8609 625.9552 626.0598 626.1217 626.1351 626.1998 626.2921 626.361 626.4105 626.5507 626.6239 626.6612 626.7232 626.8046 626.8152 626.7817 626.7046 626.7003 626.7269 626.7625 626.8293 626.8679 626.831 626.8442 626.7811 626.8008 626.7483 626.7678 626.9147 627.0406 626.987 626.9536 626.8425 626.735 626.7803 626.7719
624.4166 624.4545 624.4686 624.499 624.6094 624.7026 624.7253 624.7351 624.7128 624.7067 624.7512 624.7701 624.8235 624.8126 624.7494 624.711 624.6823 624.6663 624.6937 624.6749 624.5851 624.5587 624.5807 624.5628 624.4984 624.4655 624.3831 624.3119 624.2068 624.066 623.9397 623.8082 623.6545 623.538 623.4279 623.2778 623.2087 623.1776 622.8254 622.797 622.452 622.2637 622.1129 621.902 621.6081 621.3646 621.1629 620.821 620.0989 620.2169 619.9982 619.7477 619.5019 619.1671 618.8369 618.5218 618.1374 617.6962 617.2101 616.6904 616.2039 615.666 615.1689 614.5719 614.0891 613.5918 613.0647 612.4044 612.0427 611.5219 610.8348 610.2416 609.5216 608.7306 607.9402 607.2557 606.6061 606.0054 605.5074 605.12 604.7138 604.3411 604.0048 603.6172 603.3695 603.0909 602.339 601.756 601.0738 600.5001 600.0303 599.6943 599.5038 599.4461 599.3792 599.2609 599.1473 599.0828 598.9847 598.9581 598.9067 598.8372 598.7612 598.7056 598.5962 598.416 598.3102 598.4162 598.943 599.6021 600.2932 601.1798 601.9236 602.4582 602.8864 603.2393 603.5848 603.7131 603.9926 604.2946 604.7061 605.1252 605.4415 605.911 606.2718 606.5912 606.9471 607.2707 607.5815 607.9478 608.3536 608.6046 608.8508 609.0433 609.3032 609.6168 609.9198 610.314 610.6715 610.9318 611.151 611.3468 611.5444 611.7484 611.951 612.119 612.3074 612.5324 612.7887 613.0468 613.3173 613.6041 613.9471 614.2604 614.6093 614.9886 615.3591 615.6911 616.028 616.2718 616.5536 616.9308 617.1619 617.5836 618.1967 618.4448 618.6945 619.0268 619.4489 619.876 620.1168 620.3319 620.6319 620.9518 621.1984 621.4482 621.7578 622.0523 622.2624 622.4523 622.6535 622.9094 623.2305 623.4507 623.5919 623.7575 623.8537 623.9549 624.1765 624.3087 624.4081 624.5233 624.7135 624.7903 624.9274 625.1808 625.3924 625.5988 625.754 625.9105 625.991 625.9965 626.095 626.1954 626.2451 626.3303 626.2824 626.3799 626.4641 626.5967 626.6887 626.7737 626.8616 626.927 626.9073 626.8178 626.9126 626.896 626.8839 626.9315 626.9581 626.9896 626.996 627.028 627.0086 626.9393 626.9341 626.9043 627.0753 627.2366 627.2316 627.0865 627.0656 627.0899 627.0364 626.91 626.8646
624.4777 624.5988 624.6339 624.6428 624.7048 624.7731 624.8126 624.8035 624.8043 624.8129 624.845 624.8511 624.879 624.8811 624.8178 624.8012 624.803 624.7936 624.8033 624.7662 624.6985 624.6479 624.6426 624.6367 624.5905 624.546 624.4388 624.3339 624.1818 624.0906 623.9769 623.7827 623.5772 623.4946 623.4248 623.3103 623.2605 623.0592 622.9401 622.7445 622.4981 622.3082 622.1166 621.9189 621.6097 621.4019 621.2216 620.9094 620.5881 620.5215 620.0203 619.7648 619.4622 619.1835 618.827 618.3929 618.0453 617.6045 617.0126 616.4859 615.9235 615.4234 614.9077 614.4497 613.9471 613.4356 612.8376 612.2844 611.8488 611.3082 610.6579 609.9741 609.3078 608.5038 607.8207 607.1404 606.4888 605.8456 605.4663 605.123 604.7643 604.2904 603.8685 603.5291 603.3676 603.0289 601.8763 601.2702 600.6139 600.2272 600.0047 599.9122 599.8849 599.8509 599.7368 599.6349 599.5389 599.4305 599.3796 599.3434 599.2859 599.2017 599.1525 599.0918 598.9168 598.6728 598.5435 598.5492 599.0637 599.6796 600.2844 601.3436 602.0698 602.6586 603.1146 603.379 603.5606 603.6151 604.0688 604.5206 605.1522 605.579 605.8958 606.246 606.5755 606.9703 607.3314 607.6356 608.0353 608.4453 608.7501 608.8856 609.0636 609.3632 609.6179 609.9708 610.298 610.6793 610.9564 611.1899 611.4001 611.6316 611.894 612.0984 612.2629 612.4201 612.6517 612.8643 613.1163 613.421 613.7294 614.0104 614.3082 614.731 615.1313 615.4581 615.7806 616.0505 616.244 616.5435 616.7974 617.0358 617.2892 617.7672 618.4866 618.8484 619.1027 619.4418 619.7644 620.0462 620.2781 620.5184 620.7911 621.1496 621.3588 621.6661 621.986 622.2112 622.4056 622.6063 622.8071 622.969 623.2878 623.588 623.7226 623.8818 623.924 624.1401 624.2288 624.3517 624.4636 624.5488 624.7461 624.9063 625.0932 625.2817 625.5161 625.6345 625.7571 625.8791 626.0489 626.1342 626.2201 626.2889 626.4688 626.5695 626.5236 626.5294 626.6848 626.7256 626.7941 626.9537 627.035 627.0148 626.9996 626.9709 626.9714 627.0233 627.0413 627.0718 627.1014 627.1584 627.125 627.1163 627.1372 627.1667 627.1236 627.0952 627.3202 627.3585 627.4302 627.3188 627.2336 627.2263 627.1694 627.0613 626.9816
624.9581 624.7536 624.7498 624.774 624.7612 624.7849 624.8979 624.9315 624.929 624.9067 624.9007 624.9012 624.9064 624.8928 624.9082 624.9266 624.9647 624.9694 624.9041 624.864 624.8284 624.7928 624.7357 624.7059 624.6063 624.5727 624.4808 624.3258 624.1605 624.0798 624.0061 623.8137 623.6728 623.5448 623.4435 623.3955 623.2617 623.1233 623.0109 622.704 622.5394 622.3471 622.1147 621.8787 621.6125 621.4327 621.174 621.021 620.7112 620.3216 620.0702 619.7401 619.4211 619.1477 618.8214 618.3159 617.9288 617.3799 616.7747 616.2495 615.6934 615.2162 614.7157 614.3076 613.7455 613.2556 612.7564 612.22 611.6893 611.0316 610.345 609.7338 609.0839 608.3508 607.6756 607.0887 606.4416 605.8867 605.5021 605.1964 604.7194 604.2761 603.7218 603.3914 603.4238 603.3945 601.9848 600.7821 600.6298 600.3705 600.1938 600.1758 600.1773 600.1138 600.0313 599.9084 599.7922 599.8035 599.7844 599.7233 599.6905 599.6212 599.4846 599.3874 599.2222 599.0103 598.8094 598.6126 599.2312 599.7154 600.4255 601.3984 602.2141 602.8046 603.2061 603.2514 603.2036 603.5772 604.2163 604.902 605.3271 605.8987 606.2571 606.5854 606.9741 607.3381 607.6418 608.0467 608.4204 608.8073 608.985 609.0965 609.3728 609.684 609.9987 610.3264 610.7238 611.0078 611.2216 611.4149 611.6863 611.9193 612.1754 612.348 612.5275 612.7478 612.9309 613.2144 613.4835 613.745 614.0568 614.4418 614.8348 615.1855 615.5537 615.8885 616.1694 616.3066 616.5524 616.7897 617.0197 617.2923 617.5876 618.0568 618.8079 619.241 619.5164 619.7206 619.9459 620.2057 620.4551 620.7044 621.0024 621.3439 621.5767 621.9007 622.1931 622.3371 622.5222 622.7585 622.9066 623.1389 623.567 623.7888 623.8376 623.944 623.9547 624.1373 624.1899 624.3909 624.5087 624.5804 624.8128 625.0198 625.1922 625.3577 625.5602 625.7125 625.8344 625.9879 626.1315 626.2296 626.3234 626.4235 626.5263 626.5075 626.5582 626.6639 626.8524 626.8251 626.989 627.1275 627.109 627.0522 627.0513 627.1359 627.1035 627.1257 627.2062 627.2539 627.2642 627.3041 627.3533 627.3421 627.3165 627.3809 627.3939 627.3557 627.4396 627.5468 627.6252 627.5452 627.442 627.3247 627.2664 627.2146 627.1713
625.3635 625.0367 624.8961 624.861 624.8404 624.8412 624.954 625.0272 624.9867 624.9659 624.981 624.9509 624.9257 624.9207 624.9879 625.0302 625.1198 625.1097 625.0386 624.9882 624.9263 624.8441 624.7704 624.7083 624.6187 624.5811 624.4846 624.3029 624.1612 624.0596 623.9996 623.884 623.7495 623.6246 623.5546 623.5525 623.3328 623.1469 622.9355 622.7126 622.5374 622.3322 622.1125 621.8386 621.586 621.4252 621.1855 620.9113 620.5988 620.3702 620.066 619.7394 619.3325 619.0889 618.684 618.1747 617.7268 617.1051 616.5402 616.0372 615.5411 614.9752 614.5508 614.0595 613.4839 613.0014 612.5626 612.0969 611.4111 610.6859 610.0369 609.4139 608.799 608.1626 607.6058 607.0473 606.5175 605.9712 605.5401 605.181 604.6619 604.1544 603.6161 603.2612 603.4648 603.5406 602.6346 601.051 600.8262 600.6335 600.5674 600.5924 600.5422 600.4456 600.3323 600.2479 600.154 600.0681 600.0306 600.0151 599.9978 599.9125 599.825 599.7089 599.585 599.4504 599.2064 599.0413 599.3271 599.8174 600.4845 601.4662 602.1662 602.7234 602.6763 602.8357 603.4648 604.2171 604.8166 605.4513 605.7711 606.2137 606.6844 607.0073 607.4149 607.7051 608.0308 608.4031 608.76 609.0581 609.2079 609.3715 609.627 609.9968 610.3622 610.7435 611.0049 611.2498 611.4476 611.6704 611.9545 612.198 612.4114 612.631 612.7916 613.0328 613.2426 613.5608 613.7958 614.1105 614.4088 614.9354 615.3593 615.7275 616.0302 616.2888 616.4628 616.6376 616.895 617.0764 617.2877 617.6195 617.9092 618.4592 619.0853 619.5793 619.8428 620.0184 620.1027 620.41 620.6349 620.93 621.2245 621.4933 621.7811 622.0696 622.2589 622.4218 622.6503 622.9142 623.1459 623.412 623.7526 623.8184 623.8279 623.8923 623.9235 624.0073 624.2251 624.3939 624.4736 624.7251 624.9301 625.0989 625.3254 625.5459 625.7097 625.827 625.9637 626.0646 626.1917 626.291 626.3826 626.5226 626.6385 626.6536 626.6831 626.7363 626.8888 627.0165 627.0996 627.1691 627.1899 627.1482 627.1755 627.2095 627.2454 627.2967 627.3658 627.4155 627.4608 627.5068 627.5629 627.6332 627.5951 627.5875 627.6262 627.6403 627.6596 627.7551 627.7603 627.621 627.5204 627.4168 627.3301 627.2393 627.2437
625.5095 625.3312 625.075 624.9879 624.9247 624.9691 624.9905 625.0966 625.0706 625.0363 625.0266 625.0052 624.9974 625.0616 625.2073 625.235 625.298 625.2814 625.1064 625.0364 624.9763 624.8916 624.7715 624.7338 624.6302 624.5956 624.4691 624.2905 624.1926 624.0799 623.9939 623.8888 623.848 623.7251 623.6793 623.6682 623.3892 623.2046 622.9946 622.7307 622.5769 622.3462 622.1219 621.8728 621.6176 621.356 621.1467 620.9066 620.6408 620.3659 620.046 619.6885 619.2225 618.954 618.4991 617.9763 617.3831 616.9324 616.3915 615.8808 615.3514 614.8624 614.3414 613.843 613.311 612.8331 612.3156 611.6687 611.0425 610.3628 609.7454 609.1204 608.551 607.9742 607.5303 607.0496 606.5438 606.0291 605.5427 605.103 604.5512 603.9721 603.4747 603.0591 603.1958 603.7694 602.5843 601.456 601.2419 601.0727 600.98 600.93 600.8813 600.7915 600.705 600.5433 600.5005 600.4187 600.36 600.2999 600.2573 600.1594 600.129 599.9634 599.8895 599.7926 599.5781 599.3926 599.4669 599.8274 600.5608 601.4235 601.9067 602.0767 602.7014 603.6907 604.5051 604.8882 605.457 605.8712 606.2806 606.6418 606.9387 607.3452 607.7115 608.0599 608.4119 608.7537 609.0596 609.3024 609.4482 609.6631 609.9516 610.3403 610.7123 610.9616 611.2198 611.4763 611.7109 611.968 612.2102 612.4617 612.6756 612.8864 613.0795 613.3142 613.5677 613.8257 614.1612 614.4239 614.8596 615.3653 615.8043 616.1786 616.4739 616.5688 616.7491 616.9426 617.1145 617.3123 617.6392 617.9473 618.3181 618.7791 619.2197 619.7368 620.0369 620.3281 620.4551 620.6118 620.9086 621.1414 621.397 621.6577 621.938 622.1841 622.3746 622.5858 622.7926 623.0841 623.4516 623.7319 623.798 623.7188 623.7163 623.7773 623.8419 623.9869 624.2188 624.3862 624.5708 624.8291 624.9709 625.274 625.4869 625.774 625.8612 625.9258 626.0453 626.1296 626.2585 626.3868 626.5135 626.6454 626.7731 626.8549 626.8541 626.8232 627.0133 627.1674 627.2568 627.2783 627.2637 627.2512 627.2595 627.3093 627.3645 627.4271 627.507 627.5778 627.6111 627.6887 627.8022 627.7748 627.749 627.7768 627.8633 627.9277 627.9282 627.8918 627.8238 627.756 627.6244 627.4952 627.4182 627.3705 627.361
625.4014 625.6204 625.2357 625.114 625.0648 625.062 625.018 625.0494 625.102 625.0843 625.0984 625.0867 625.084 625.1002 625.236 625.3392 625.5356 625.475 625.2534 625.0938 625.0252 624.9705 624.821 624.7205 624.6353 624.5739 624.439 624.3217 624.2161 624.1093 624.051 623.9481 623.8559 623.8134 623.7662 623.5902 623.4667 623.202 623.0995 622.8272 622.5776 622.3594 622.1317 621.8539 621.6392 621.3647 621.1273 620.9012 620.6194 620.2889 619.9535 619.6025 619.1957 618.7955 618.2993 617.7696 617.2755 616.7849 616.2892 615.858 615.2593 614.7742 614.295 613.7603 613.1399 612.6279 612.0294 611.4443 610.7285 610.131 609.5255 608.9464 608.3961 607.9123 607.5037 606.9905 606.4934 605.9945 605.4427 604.922 604.4016 603.8252 603.4158 602.9415 603.1689 604.0532 603.1317 601.8801 601.6793 601.5802 601.475 601.372 601.2332 601.2047 601.103 601.0025 600.866 600.8271 600.7686 600.8002 600.6678 600.4935 600.3633 600.201 600.1053 600.0364 599.9172 599.7523 599.7508 599.9314 600.4799 601.2464 601.3884 602.3843 603.5873 604.3513 604.8907 605.3586 605.7469 606.1909 606.6501 606.8932 607.1438 607.5705 607.9317 608.3292 608.6895 609.0594 609.3492 609.5657 609.7401 609.965 610.3087 610.7326 611.058 611.2535 611.4724 611.7238 611.9716 612.257 612.4943 612.7511 613.0093 613.1554 613.4263 613.6336 613.8516 614.1183 614.4629 614.8538 615.3355 615.9191 616.2839 616.5776 616.7581 616.8641 617.0058 617.1737 617.36 617.6272 617.9268 618.2369 618.5703 618.8972 619.2653 619.7335 620.1523 620.5873 620.7813 620.9603 621.0718 621.3091 621.5493 621.7482 622.0471 622.3058 622.4792 622.8073 622.9904 623.2634 623.5735 623.6867 623.715 623.6606 623.5965 623.6824 623.8289 624.0093 624.2527 624.4365 624.7178 624.9609 625.1267 625.3955 625.5321 625.6784 625.8759 626.0298 626.0575 626.1976 626.3397 626.5228 626.7051 626.8321 626.9584 626.9644 626.912 626.9 627.1375 627.3219 627.3704 627.3793 627.3909 627.4177 627.4621 627.5352 627.5843 627.6564 627.7496 627.7763 627.8054 627.91 627.9145 627.9196 627.9645 628.0189 628.1256 628.2395 628.1956 628.0491 627.9706 627.8495 627.7222 627.66 627.6677 627.7425 627.6913
625.2284 625.6831 625.5792 625.1288 625.1289 625.082 625.0494 625.0571 625.1146 625.1595 625.1857 625.1819 625.1922 625.2254 625.3126 625.5471 625.8591 625.6618 625.3217 625.1079 625.0406 624.9638 624.8893 624.817 624.6843 624.5628 624.4888 624.3479 624.2148 624.1329 624.0699 624.0187 623.9155 623.8648 623.7772 623.5946 623.3603 623.2056 623.1054 622.8233 622.5995 622.3148 622.1661 621.8203 621.6055 621.3005 621.0822 620.856 620.5201 620.1517 619.8069 619.4836 619.118 618.6293 618.1406 617.6077 617.1584 616.6947 616.1531 615.7446 615.1797 614.7032 614.2047 613.6877 613.0563 612.4126 611.799 611.2129 610.4487 609.9644 609.3761 608.8198 608.2972 607.9406 607.4576 606.8917 606.3887 605.8567 605.2595 604.7356 604.2257 603.7026 603.4171 603.0528 603.2785 604.3062 603.9418 602.3707 602.0755 601.9101 601.8445 601.8147 601.7837 601.651 601.5596 601.4356 601.3326 601.2533 601.1506 601.0475 600.8931 600.7456 600.6108 600.4294 600.3235 600.2703 600.137 599.9678 599.899 600.0913 600.5967 600.9415 602.0836 603.0925 603.8713 604.7374 605.2232 605.6597 606.0569 606.5764 606.9461 607.2885 607.5422 607.7763 608.145 608.5445 608.9459 609.2939 609.5889 609.8376 610.0021 610.3007 610.7569 611.0793 611.3609 611.5541 611.7587 612.0052 612.2766 612.5473 612.8243 613.0751 613.2991 613.5643 613.7792 613.9432 614.2279 614.5804 614.9213 615.4031 615.8203 616.3425 616.605 616.8036 616.9725 617.0632 617.2283 617.4005 617.6315 617.8378 618.1561 618.4886 618.7927 619.1884 619.4938 619.8218 620.1835 620.6595 621.0637 621.1536 621.2646 621.4604 621.6334 621.8532 622.1172 622.4086 622.787 622.9711 623.2056 623.4156 623.5455 623.604 623.5925 623.4648 623.4813 623.5915 623.853 624.0961 624.3196 624.6125 624.8787 625.0703 625.2754 625.4586 625.5517 625.7234 625.9209 626.083 626.1373 626.2826 626.4277 626.6794 626.8423 626.9213 626.98 627.0887 627.1722 627.1647 627.2355 627.3455 627.4269 627.4583 627.5156 627.6149 627.6877 627.7184 627.7593 627.8257 627.9662 627.999 628.0243 628.0557 628.0536 628.1232 628.2505 628.2966 628.352 628.4268 628.3109 628.1749 628.0553 627.9376 627.8013 627.7983 627.8478 627.9009 627.8663
625.206 625.4761 625.783 625.4515 625.2245 625.0923 625.0896 625.1288 625.1844 625.2147 625.2443 625.2983 625.3246 625.322 625.4142 625.8852 626.1964 626.1096 625.518 625.1005 625.033 625.0249 624.9475 624.8689 624.7257 624.5082 624.5117 624.3964 624.2695 624.1519 624.0918 624.0471 623.9758 623.9778 623.7326 623.634 623.4408 623.2767 622.9816 622.8375 622.6273 622.3465 622.1255 621.8005 621.5387 621.2949 621.0547 620.7059 620.4068 620.0475 619.6743 619.2991 618.9121 618.4369 617.9869 617.527 617.0073 616.5125 616.0406 615.5829 615.0884 614.597 614.0161 613.4183 612.8065 612.1824 611.567 610.9908 610.3119 609.7725 609.2292 608.7479 608.2065 607.853 607.272 606.7664 606.2529 605.5986 605.0446 604.5132 604.1022 603.7249 603.4794 603.3014 603.4609 604.4526 604.5072 603.0301 602.3767 602.3798 602.3463 602.3401 602.3543 602.2544 602.0781 601.9592 601.8476 601.679 601.4918 601.3298 601.1921 601.0046 600.8264 600.7017 600.5798 600.486 600.4084 600.1318 600.1401 600.2445 600.4924 601.0967 602.1663 603.2968 604.1386 604.9593 605.5155 605.9749 606.3845 606.7567 607.1487 607.4805 607.704 608.0366 608.392 608.7813 609.1998 609.5697 609.779 610.0428 610.3287 610.6886 610.9856 611.2994 611.5225 611.7577 612.0112 612.2982 612.5447 612.8276 613.1581 613.4683 613.7357 613.9607 614.2178 614.4339 614.7101 615.0752 615.4719 615.8965 616.3152 616.6462 616.821 616.9438 617.0866 617.2766 617.48 617.6561 617.8964 618.1411 618.4553 618.7986 619.1675 619.5012 619.7971 620.0615 620.3015 620.5886 621.0664 621.4825 621.5528 621.5649 621.7425 621.9696 622.2117 622.6531 622.9573 623.142 623.3316 623.4761 623.5229 623.5311 623.4623 623.4311 623.4861 623.692 623.9613 624.2098 624.4183 624.6418 624.9545 625.1434 625.362 625.5062 625.6955 625.8215 625.9857 626.1509 626.3152 626.3923 626.5538 626.8166 626.9427 627.0458 627.1266 627.1611 627.2684 627.2631 627.2475 627.3132 627.4669 627.6365 627.7468 627.7796 627.8152 627.8496 627.8885 628.0295 628.1488 628.1733 628.1866 628.2084 628.2648 628.3689 628.4423 628.4682 628.4783 628.52 628.4493 628.271 628.1635 628.1295 628.0334 628.0123 628.038 628.0571 628.0372
625.3309 625.3493 625.8135 625.8409 625.3598 625.2324 625.1719 625.2184 625.2474 625.2822 625.3189 625.3845 625.4238 625.4269 625.4948 626.0355 626.6372 626.8181 626.2535 625.9409 625.7081 625.1072 624.9766 624.8913 624.7188 624.4935 624.5121 624.4301 624.3318 624.2395 624.1461 624.0643 624.0641 624.025 623.8077 623.6506 623.4554 623.211 623.0277 622.8577 622.5912 622.3248 622.0697 621.7933 621.5123 621.2313 621.0057 620.6036 620.334 619.9398 619.5292 619.1119 618.6849 618.2535 617.787 617.3564 616.8605 616.3947 615.8898 615.3987 614.9164 614.401 613.7553 613.1088 612.5186 611.9335 611.3067 610.7695 610.1884 609.613 609.113 608.6813 608.1602 607.6387 607.1174 606.6164 606.0245 605.4282 604.8335 604.37 604.0676 603.9003 603.6871 603.5088 603.5891 604.4709 604.8176 603.5698 602.8729 602.8742 602.9736 602.9938 602.8922 602.7939 602.7145 602.5397 602.3039 602.145 601.875 601.6079 601.4758 601.3294 601.135 600.9597 600.8353 600.7206 600.5583 600.3594 600.1235 600.2483 600.482 601.0883 602.0823 603.3673 604.4132 605.213 605.7853 606.1882 606.5822 606.9448 607.2921 607.6066 607.9204 608.2587 608.6163 609.0402 609.4907 609.7021 609.9662 610.3568 610.6573 610.9109 611.2408 611.5384 611.788 612.058 612.3355 612.6053 612.8405 613.1798 613.5641 613.8223 614.0945 614.3801 614.5682 614.7898 615.1525 615.5838 615.9367 616.3711 616.6699 616.8196 616.9606 617.2266 617.4075 617.5463 617.7011 617.9433 618.2325 618.5355 618.7799 619.174 619.4118 619.7744 620.0507 620.2267 620.4819 620.7212 621.0604 621.6309 621.8781 621.9442 622.0753 622.1405 622.4551 622.8077 623.1508 623.3815 623.3331 623.4465 623.3867 623.2791 623.3442 623.4849 623.5914 623.8383 624.1284 624.2944 624.5255 624.7747 624.9648 625.1797 625.4014 625.5756 625.7607 625.9174 626.1299 626.2815 626.3987 626.5021 626.7899 626.961 627.081 627.1559 627.1755 627.2576 627.3239 627.2964 627.371 627.4422 627.703 627.8667 627.948 628.0004 627.9762 627.9597 628.1371 628.2874 628.3456 628.3915 628.3909 628.4081 628.4595 628.546 628.6395 628.673 628.6849 628.6055 628.4865 628.401 628.3507 628.3489 628.3145 628.2183 628.1865 628.181 628.1474
625.3329 625.5525 625.8461 625.951 625.7715 625.4493 625.3561 625.2952 625.3245 625.3267 625.3441 625.4446 625.4871 625.5025 625.553 626.1376 627.0558 627.1224 626.8711 626.6226 626.4709 625.9158 625.0632 624.8786 624.7818 624.6368 624.5431 624.481 624.3354 624.2496 624.1523 624.1437 624.1415 623.9112 623.8364 623.6481 623.491 623.241 623.0505 622.9109 622.5343 622.2721 622.0473 621.7003 621.4072 621.1518 620.9069 620.5237 620.2133 619.7637 619.3501 618.9246 618.5021 618.0729 617.5856 617.1217 616.6403 616.2015 615.7134 615.2112 614.7554 614.1584 613.4865 612.8655 612.3113 611.6257 611.1004 610.5888 610.0265 609.4851 608.9839 608.5203 608.0314 607.5054 606.9446 606.3605 605.7396 605.111 604.6753 604.3568 604.1752 604.0516 603.9321 603.7979 603.8511 604.4811 605.0309 604.4811 603.7533 603.4701 603.4477 603.4211 603.3441 603.2125 603.0446 602.9169 602.7217 602.3962 602.1337 601.9202 601.6696 601.4975 601.3724 601.2054 600.9611 600.7845 600.6432 600.4744 600.2251 600.169 600.4471 601.0928 602.191 603.3975 604.4209 605.3731 605.9819 606.3632 606.7557 607.1098 607.4483 607.7497 608.1309 608.495 608.8564 609.3182 609.6815 609.8925 610.3366 610.661 610.8975 611.1732 611.5235 611.8263 612.1251 612.3756 612.6528 612.9431 613.1797 613.5438 613.8387 614.1588 614.4262 614.6555 614.9232 615.2557 615.5868 615.9086 616.3835 616.655 616.7927 616.9543 617.1115 617.3715 617.528 617.7592 617.9603 618.2281 618.4736 618.7554 619.106 619.3467 619.6611 619.9827 620.1837 620.4163 620.6555 620.8951 621.1481 621.5756 621.9733 622.207 622.2576 622.4637 622.7639 623.0082 623.3016 623.4632 623.3271 623.2714 623.1993 623.1654 623.2335 623.5081 623.7264 623.9852 624.2899 624.4427 624.6551 624.8064 624.9619 625.2358 625.5156 625.66 625.8464 626.0831 626.2772 626.3931 626.5212 626.6984 626.9235 627.0224 627.1099 627.1516 627.1969 627.36 627.4128 627.515 627.5684 627.5742 627.8558 627.9426 628.0563 628.1166 628.13 628.2418 628.3576 628.4489 628.5395 628.6186 628.6416 628.6243 628.6569 628.7545 628.8228 628.8389 628.7236 628.6514 628.658 628.6234 628.4875 628.5093 628.4897 628.4134 628.3494 628.3032 628.2452
625.8578 625.8542 625.861 625.9521 626.0294 625.6988 625.595 625.473 625.4031 625.4196 625.4412 625.4832 625.5204 625.5738 625.6534 626.3229 626.9362 627.0693 626.9904 626.938 626.8667 626.1844 625.3311 624.9462 624.7926 624.6983 624.6051 624.5401 624.3413 624.235 624.1636 624.2116 624.1295 623.9534 623.665 623.6237 623.4871 623.2679 623.0609 622.7338 622.4376 622.2147 621.9869 621.6337 621.2914 621.0229 620.7834 620.3969 620.011 619.6075 619.166 618.7493 618.3746 617.9102 617.4381 616.9933 616.5101 616.0033 615.5602 615.1009 614.5885 613.8959 613.2283 612.6234 612.0251 611.4198 610.9227 610.4139 609.9517 609.3893 608.8837 608.2719 607.7995 607.2877 606.6503 606.1177 605.5139 605.0232 604.733 604.4869 604.3407 604.2712 604.2139 604.1864 604.3871 604.7874 605.2279 605.1797 604.3767 604.196 603.9926 603.9185 603.7841 603.6546 603.461 603.289 603.1304 602.8492 602.4565 602.203 601.9783 601.8048 601.6477 601.3855 601.111 600.8748 600.7747 600.5721 600.3655 600.3287 600.4656 601.0323 602.1174 603.4116 604.5375 605.5811 606.092 606.5174 606.852 607.1995 607.571 607.9685 608.3453 608.7226 609.1335 609.6073 609.9308 610.2561 610.5217 610.8104 611.1171 611.4891 611.8398 612.127 612.4314 612.6615 612.975 613.2756 613.497 613.8487 614.1367 614.3676 614.631 614.9143 615.2632 615.5892 615.9272 616.1792 616.5312 616.7526 616.9028 617.0865 617.3655 617.5426 617.7245 617.9744 618.2072 618.5071 618.7734 619.033 619.3311 619.5638 619.8787 620.1497 620.3935 620.6545 620.811 621.0649 621.281 621.5157 621.9072 622.3653 622.7963 622.8523 622.9777 623.0723 623.2542 623.3748 623.3049 623.1675 623.0988 623.1328 623.306 623.584 623.7772 624.0404 624.4421 624.7029 624.8454 624.9513 625.0974 625.2965 625.5644 625.7894 625.999 626.2444 626.3752 626.5242 626.6685 626.8528 626.9706 627.0922 627.1472 627.1815 627.2308 627.407 627.4701 627.683 627.733 627.7862 627.9529 628.0779 628.2206 628.2947 628.3682 628.4236 628.4456 628.6207 628.7456 628.7798 628.7647 628.7855 628.8265 628.8452 628.9119 628.901 628.8223 628.6934 628.6706 628.7293 628.7376 628.6344 628.585 628.5306 628.5948 628.5743 628.6355
625.6819 625.5981 625.6656 625.7966 626.0714 626.008 625.6535 625.5923 625.5646 625.5578 625.5099 625.5088 625.6027 625.7097 625.8766 626.4192 626.7796 627.0298 626.9191 626.9703 626.714 625.7033 625.1542 624.9484 624.8251 624.7617 624.6439 624.5392 624.3818 624.2701 624.2642 624.3055 624.0159 623.9203 623.7611 623.5236 623.4456 623.2058 622.9929 622.6819 622.3976 622.1625 621.8788 621.5123 621.2402 620.9192 620.6512 620.2448 619.8421 619.4248 618.9969 618.5787 618.1433 617.7541 617.2475 616.7778 616.3237 615.8584 615.378 614.9456 614.3842 613.69 612.9528 612.3835 611.7302 611.2092 610.795 610.2448 609.6595 609.1296 608.6464 608.0566 607.5521 606.9681 606.4625 606.0351 605.5151 605.1312 604.9901 604.8423 604.8083 604.7564 604.7155 604.7711 604.9263 605.1884 605.4857 605.5992 604.963 604.8167 604.6877 604.5095 604.3716 604.2264 603.938 603.6404 603.4794 603.2498 603.011 602.7493 602.4644 602.2249 602.0212 601.8039 601.4737 601.183 601.1577 600.9835 600.5849 600.3741 600.5356 601.1815 602.0941 603.2939 604.5972 605.6055 606.1395 606.5719 606.9378 607.3395 607.7445 608.098 608.5508 608.9838 609.3846 609.8943 610.2487 610.4675 610.7344 611.0044 611.391 611.7142 612.0859 612.3773 612.6708 612.9528 613.2173 613.514 613.8127 614.1153 614.4187 614.6166 614.9045 615.2688 615.5632 615.9262 616.2493 616.4902 616.6472 616.9024 617.1032 617.3601 617.5037 617.7143 617.9189 618.2441 618.5298 618.7966 619.0076 619.2743 619.5156 619.785 620.0826 620.3376 620.5844 620.7695 620.9534 621.1426 621.3572 621.574 621.9337 622.4899 622.9092 623.0252 623.0884 623.1602 623.218 623.313 623.3769 623.2173 623.2253 623.4047 623.5364 623.6908 623.892 624.0612 624.5105 624.7865 624.9941 625.1093 625.1901 625.4316 625.6201 625.8834 626.0508 626.4269 626.4871 626.6187 626.8127 627.0097 627.1407 627.1914 627.2233 627.236 627.344 627.4835 627.7122 627.8871 627.9622 628.0092 628.0847 628.2734 628.3763 628.3982 628.4427 628.5749 628.7252 628.8243 628.8563 628.9357 629.0351 629.1019 629.0616 628.9843 628.9305 628.9305 628.8858 628.8114 628.7686 628.8241 628.8022 628.7791 628.7004 628.6929 628.8388 628.9565 628.942
625.4963 625.5736 625.6978 625.741 625.9463 626.1497 625.9019 625.6395 625.6257 625.6169 625.5877 625.5847 625.6219 625.6835 625.8941 626.1449 626.5975 626.882 626.855 626.5242 625.9007 625.3912 625.2035 625.0975 624.9717 624.865 624.7624 624.598 624.478 624.3597 624.4103 624.3661 624.1811 623.9865 623.9322 623.595 623.3667 623.1694 622.9118 622.6336 622.3779 622.0869 621.6802 621.3837 621.14 620.8101 620.4675 620.0587 619.6951 619.2426 618.8416 618.3983 617.9863 617.5261 616.9869 616.5403 616.1332 615.6882 615.1511 614.692 614.1053 613.4524 612.7299 612.175 611.568 611.1257 610.5847 610.0408 609.54 608.9323 608.3556 607.8331 607.3353 606.8738 606.4434 606.2176 605.7974 605.5553 605.3512 605.2232 605.2479 605.333 605.3483 605.3962 605.4867 605.7192 605.8386 606.1164 605.6387 605.2774 605.2039 605.0106 604.7343 604.5164 604.351 604.0955 603.7831 603.5678 603.36 603.1829 602.8478 602.4211 602.1833 601.898 601.6994 601.6898 601.7266 601.3094 600.8732 600.5336 600.7626 601.4099 602.0917 603.1884 604.4746 605.5994 606.1915 606.6422 607.0927 607.5468 607.9212 608.3452 608.7957 609.2376 609.7122 610.1279 610.4092 610.6714 610.9063 611.2221 611.6246 611.9672 612.3614 612.6444 612.8804 613.1812 613.4199 613.7645 614.0335 614.3935 614.6375 614.8907 615.1873 615.5379 615.9141 616.1924 616.4277 616.6587 616.7958 617.1185 617.423 617.5535 617.7269 617.9186 618.2463 618.4736 618.77 619.1011 619.2354 619.4022 619.6963 619.9917 620.3207 620.5643 620.713 620.903 621.1024 621.2897 621.4636 621.739 622.1284 622.546 623.0186 623.1956 623.2155 623.1984 623.2738 623.3411 623.3366 623.3295 623.416 623.5526 623.7079 623.8209 624.0284 624.16 624.4539 624.7563 625.0188 625.1497 625.3271 625.512 625.6891 625.9669 626.2327 626.5505 626.6104 626.7614 626.9612 627.1724 627.2313 627.2878 627.3342 627.4737 627.5852 627.6226 627.914 627.9766 628.0742 628.1777 628.291 628.4196 628.5085 628.5001 628.6532 628.8279 628.9272 628.8994 629.007 629.0891 629.1472 629.1536 629.0864 629.0173 629.0131 628.9986 628.9664 628.9152 628.9315 628.9879 629.0016 628.9853 629.0571 629.2139 629.2227 629.1675 629.1056
625.5237 625.6214 625.7052 625.7364 625.8571 626.1228 626.2098 625.775 625.605 625.6036 625.6033 625.6309 625.619 625.5722 625.6261 625.7619 625.925 626.0168 625.9803 625.8425 625.6144 625.3766 625.261 625.0927 624.9879 624.8956 624.842 624.7238 624.5766 624.5551 624.5581 624.3788 624.1783 623.9404 623.8071 623.515 623.3315 623.1093 622.8468 622.6246 622.3383 621.9608 621.5887 621.2556 620.9293 620.6398 620.2505 619.908 619.5715 619.1397 618.6874 618.1906 617.7348 617.2697 616.764 616.3203 615.94 615.4895 614.9709 614.4409 613.8379 613.1259 612.4899 611.8776 611.4105 611.0563 610.411 609.8481 609.2852 608.689 608.1571 607.6401 607.1733 606.8064 606.5906 606.4178 606.2506 605.975 605.8098 605.8112 605.8478 605.861 605.9652 606.0486 606.2288 606.2841 606.4111 606.5125 606.3547 605.9161 605.5942 605.3702 605.054 604.8772 604.617 604.3898 604.1584 603.8955 603.5165 603.3653 603.098 602.6977 602.5752 602.4971 602.4037 602.3259 602.1419 601.7846 601.1696 600.7947 600.9125 601.5274 602.1555 603.059 604.4149 605.5679 606.2624 606.8693 607.3505 607.7731 608.1639 608.6249 609.1793 609.5546 609.9708 610.2969 610.6264 610.9176 611.2176 611.5126 611.9911 612.254 612.5474 612.9033 613.0884 613.3645 613.6291 613.9397 614.2177 614.6597 614.9642 615.1552 615.5278 615.8555 616.0862 616.2639 616.5491 616.8101 617.024 617.3574 617.5954 617.7281 617.9407 618.1931 618.4381 618.7067 619.0358 619.209 619.3849 619.6048 619.858 620.2117 620.5273 620.7217 620.8328 621.0045 621.205 621.4537 621.6815 622.0128 622.3748 622.5524 623.0487 623.2802 623.4677 623.4556 623.4167 623.4136 623.4009 623.4177 623.4574 623.6702 623.7449 623.8879 624.0595 624.2591 624.4716 624.7319 624.9391 625.3393 625.4609 625.6454 625.8453 625.9945 626.5491 626.6317 626.7455 626.9317 627.0751 627.2323 627.2455 627.3743 627.46 627.609 627.6644 627.7925 628.0564 628.0895 628.2143 628.2859 628.4373 628.6104 628.6533 628.7157 628.8346 628.9919 629.0428 629.0581 629.1567 629.2122 629.2541 629.2044 629.1121 629.0827 629.1202 629.0888 629.0372 629.0214 629.0922 629.2238 629.2952 629.3976 629.4752 629.3928 629.3658 629.4028 629.339
625.5561 625.6364 625.6726 625.6856 625.7652 625.9991 626.268 626.1758 625.7961 625.6395 625.6385 625.6716 625.6513 625.618 625.5898 625.5958 625.6702 625.6365 625.6449 625.6365 625.5508 625.3998 625.2982 625.1372 624.997 624.9112 624.8353 624.7207 624.5955 624.6322 624.4838 624.3933 624.2255 623.94 623.6883 623.4138 623.2489 623.0629 622.8501 622.5408 622.2322 621.8444 621.4819 621.1152 620.7649 620.4145 620.1535 619.8047 619.3901 618.9433 618.4689 618.032 617.6177 617.1215 616.6363 616.1761 615.7729 615.3382 614.8043 614.179 613.5334 612.8744 612.2767 611.7836 611.272 610.8663 610.1819 609.5941 609.0497 608.559 607.9612 607.6591 607.2465 606.9389 606.7649 606.5707 606.4798 606.5406 606.3938 606.373 606.4136 606.4785 606.595 606.7451 606.7508 606.7496 606.8144 606.9006 606.9128 606.6207 606.201 605.8893 605.6932 605.4232 605.2593 604.8732 604.5927 604.2075 603.7391 603.3954 603.4703 603.3123 603.0992 602.9642 602.8392 602.6573 602.4702 602.1862 601.5597 601.029 601.1354 601.7142 602.2281 603.0768 604.2906 605.6764 606.3918 607.0911 607.6156 607.987 608.4095 608.9308 609.427 609.7795 610.162 610.5091 610.8839 611.1865 611.4883 611.8547 612.1957 612.4709 612.7941 613.1259 613.3621 613.5759 613.803 614.1664 614.5693 614.9496 615.248 615.5432 615.7988 616.0608 616.2681 616.4225 616.7632 617.0091 617.2882 617.6136 617.8047 618.0133 618.2249 618.5004 618.7354 618.9125 619.1759 619.3939 619.6095 619.7974 620.0775 620.3857 620.5902 620.7909 620.9146 621.0675 621.3747 621.6843 621.9197 622.2469 622.4412 622.6689 623.0134 623.1935 623.6775 623.7024 623.5468 623.522 623.5098 623.5114 623.5592 623.7122 623.7698 623.8506 624.0236 624.256 624.5003 624.7393 624.9495 625.4049 625.6099 625.8196 625.9776 626.197 626.5541 626.7011 626.8519 627.0215 627.1664 627.27 627.3095 627.3842 627.5544 627.6992 627.7786 627.9368 628.1312 628.1981 628.2624 628.3839 628.5678 628.6183 628.8265 628.8798 629.0552 629.1334 629.1747 629.2513 629.2787 629.2462 629.2474 629.1685 629.1286 629.1667 629.1794 629.1593 629.1265 629.142 629.2161 629.3736 629.5388 629.587 629.5603 629.4996 629.5107 629.4532 629.3706
625.6342 625.6264 625.6442 625.6614 625.7172 625.892 626.1374 626.3299 626.1281 625.8214 625.733 625.7439 625.758 625.7313 625.6607 625.5489 625.5735 625.6023 625.6082 625.5777 625.4874 625.4204 625.3148 625.2127 625.14 624.9868 624.8654 624.7315 624.6669 624.7105 624.425 624.339 624.1951 623.9388 623.7216 623.407 623.2194 623.083 622.8116 622.4813 622.1843 621.7861 621.3896 621.045 620.6666 620.3873 620.0994 619.699 619.1879 618.7954 618.3478 617.9149 617.4518 617.0108 616.47 616.0352 615.6339 615.1492 614.5533 613.9616 613.2718 612.6389 612.1013 611.6357 611.1358 610.4858 609.9397 609.3871 608.9004 608.3814 608.0821 607.7729 607.4799 607.2142 607.1208 607.0411 606.9619 606.9634 606.9496 606.988 607.064 607.1591 607.33 607.3366 607.3071 607.3223 607.3398 607.3599 607.3596 607.0448 606.6716 606.3703 606.1003 605.8555 605.8085 605.532 605.0015 604.5104 604.2312 604.0706 604.0101 603.7501 603.5153 603.2748 603.1365 602.9462 602.7636 602.3517 601.8079 601.2797 601.4686 601.8693 602.3561 603.0223 604.2064 605.6946 606.5867 607.2883 607.7589 608.1655 608.651 609.1746 609.6262 610.016 610.4288 610.8371 611.1418 611.4498 611.7927 612.0794 612.3831 612.6891 613.0613 613.3014 613.5162 613.7537 614.0396 614.3853 614.8463 615.3217 615.6985 615.9031 616.1077 616.2954 616.4626 616.715 617.0147 617.241 617.5524 617.8113 618.127 618.2623 618.4703 618.7007 618.9215 619.1506 619.3661 619.569 619.8915 620.0463 620.3184 620.5577 620.6967 620.8752 621.0601 621.2861 621.623 621.9042 622.1554 622.3882 622.6171 622.7993 622.9786 623.054 623.5228 623.9124 623.8163 623.6 623.601 623.5434 623.5413 623.6958 623.8028 623.9039 624.059 624.2898 624.5424 624.8329 625.1145 625.4269 625.7766 625.9498 626.206 626.3875 626.655 626.7639 626.9175 627.0688 627.2315 627.309 627.3589 627.4865 627.6216 627.7632 627.8756 627.9931 628.1506 628.228 628.4048 628.6246 628.5872 628.7076 628.9201 629.0255 629.132 629.2708 629.3076 629.3692 629.3439 629.2512 629.1951 629.1715 629.2159 629.2635 629.2956 629.3204 629.3373 629.441 629.5577 629.6877 629.6905 629.6832 629.7184 629.601 629.3925 629.4451 629.5562
625.8734 625.6697 625.6768 625.7086 625.7634 625.84 626.0147 626.3291 626.3305 626.0284 625.8675 625.7862 625.7447 625.7081 625.6561 625.6378 625.5855 625.588 625.5937 625.5968 625.5114 625.4537 625.3834 625.2381 625.0862 624.9863 624.8973 624.8231 624.7908 624.6377 624.5162 624.2953 624.0934 623.9377 623.731 623.4604 623.2269 623.0872 622.7523 622.4634 622.1352 621.7557 621.3104 621.0471 620.6587 620.3481 619.9798 619.6135 619.1075 618.6651 618.2433 617.8203 617.3674 616.9244 616.3897 615.9446 615.4276 614.9228 614.4055 613.7498 613.0331 612.4295 611.9841 611.4471 610.7624 610.2949 609.7702 609.2205 608.8284 608.4224 608.2112 607.9478 607.7639 607.6644 607.5822 607.4886 607.4979 607.528 607.5988 607.7233 607.8344 607.8901 607.9315 607.9555 607.9244 607.9291 607.826 607.7341 607.7205 607.5529 607.0994 606.8325 606.5938 606.3024 605.9695 605.7159 605.4171 604.9495 604.5433 604.6081 604.3607 604.1191 603.9249 603.6472 603.3914 603.1378 602.964 602.5956 602.0881 601.5283 601.4789 602.0797 602.5031 603.1382 604.0769 605.5195 606.6526 607.5197 607.9039 608.3767 608.8558 609.323 609.8451 610.3528 610.7468 611.0896 611.4323 611.7605 611.9897 612.2976 612.5533 612.8908 613.1624 613.4063 613.6459 613.9665 614.304 614.8107 615.2408 615.576 615.8835 616.1529 616.3589 616.5671 616.7805 616.9857 617.2121 617.4756 617.7232 617.951 618.0501 618.4738 618.6884 618.8831 619.0827 619.2687 619.4756 619.8245 620.0553 620.3209 620.5159 620.6293 620.8214 621.0314 621.3077 621.5875 621.8839 622.1049 622.3691 622.5792 622.7843 622.8713 622.9016 623.0294 623.1799 623.8532 624.0878 623.9196 623.5223 623.5589 623.5674 623.6994 623.8821 624.0706 624.2271 624.3552 624.7123 625.0072 625.3142 625.6212 625.8801 626.1105 626.3508 626.4672 626.7128 626.8484 627.02 627.0942 627.2374 627.3649 627.5164 627.6066 627.6847 627.8038 627.9223 628.027 628.3541 628.4562 628.5233 628.6617 628.6654 628.7839 628.9797 629.0922 629.2047 629.3368 629.4006 629.3693 629.3529 629.298 629.2551 629.2807 629.3227 629.4084 629.5387 629.5868 629.6216 629.821 629.8637 630.0773 630.1718 630.0649 629.7101 629.3662 629.7334 629.866 629.7091
626.1098 625.8412 625.7448 625.7709 625.8116 625.8631 625.9988 626.252 626.4217 626.2601 626.0151 625.8705 625.7511 625.694 625.6498 625.6331 625.6167 625.5643 625.5795 625.6071 625.5407 625.276 625.4407 625.2703 625.1451 625.0375 624.9056 624.8688 624.7675 624.5832 624.5638 624.2538 624.046 623.8844 623.6555 623.39 623.2255 623.0305 622.7397 622.4158 622.0815 621.7064 621.3254 621.0048 620.6765 620.2895 619.8941 619.5193 619.0779 618.598 618.1607 617.7233 617.3103 616.8948 616.359 615.7919 615.2036 614.7379 614.1931 613.6136 612.8494 612.2756 611.6504 611.0257 610.6084 610.1686 609.6932 609.3062 608.9602 608.605 608.3405 608.1783 608.1741 608.1609 608.1014 608.0975 608.1635 608.1476 608.2065 608.2837 608.3824 608.4795 608.5302 608.4491 608.3582 608.322 608.209 608.1439 608.0944 608.0775 607.5594 607.2162 606.9921 606.6757 606.4087 606.1522 605.7592 605.3952 604.9616 604.6656 604.5458 604.3753 604.1736 603.9752 603.6629 603.4302 603.1525 602.8901 602.4717 601.9252 601.7669 602.2149 602.7094 603.2183 604.1392 605.535 606.8139 607.6482 608.0971 608.5782 609.064 609.519 610.0383 610.6824 611.0806 611.4041 611.6866 611.9211 612.1602 612.4496 612.7339 613.0302 613.2661 613.5349 613.8518 614.203 614.6294 615.0558 615.4538 615.8259 616.1222 616.3962 616.6318 616.839 617.031 617.2621 617.4847 617.7413 617.924 618.0933 618.2657 618.5582 618.7766 618.9702 619.1975 619.3801 619.6238 619.918 620.2902 620.4868 620.6683 620.859 621.0303 621.2946 621.5273 621.8152 622.0563 622.2786 622.5215 622.7076 622.7954 622.7982 622.861 623.0051 623.1257 623.647 624.1516 624.2672 624.1151 623.6786 623.6567 623.7552 623.965 624.1942 624.3348 624.5345 624.8717 625.1289 625.4847 625.7549 626.0065 626.2242 626.4204 626.5917 626.8359 626.9843 627.025 627.0516 627.2421 627.4458 627.6424 627.7037 627.8056 627.9178 627.9978 628.2358 628.4901 628.5723 628.5729 628.6897 628.8472 628.9637 629.1196 629.2614 629.354 629.373 629.3744 629.3703 629.378 629.3604 629.3975 629.4341 629.4957 629.6166 629.7095 629.7026 629.8038 629.7953 629.8857 630.1309 629.9378 629.7169 629.5724 630.0105 629.998 629.791 629.6258
626.3002 626.0048 625.8542 625.8302 625.8655 625.9285 626.104 626.3255 626.4337 626.4388 626.2429 626.0103 625.8349 625.7158 625.7109 625.7305 625.6783 625.611 625.538 625.5496 625.5422 625.4817 625.3822 625.2382 625.171 625.054 624.9897 624.9953 624.7676 624.8158 624.3921 624.2425 624.028 623.8402 623.5861 623.4059 623.1964 622.9798 622.7468 622.3511 622.1 621.668 621.3146 620.9667 620.6039 620.2599 619.8423 619.3979 619.0185 618.585 618.088 617.688 617.2147 616.7766 616.2181 615.6213 615.0371 614.5395 613.6794 613.0844 612.624 611.9119 611.3959 610.973 610.5426 610.1951 609.7496 609.4573 609.1495 608.832 608.7008 608.6755 608.6771 608.7514 608.7332 608.664 608.7024 608.7583 608.8046 608.8994 608.973 609.0429 608.9985 608.9163 608.7931 608.734 608.5887 608.4988 608.5281 608.5167 608.061 607.5564 607.2824 607.0441 606.8121 606.4849 606.045 605.7032 605.3972 605.0341 604.7977 604.687 604.5522 604.2261 603.9902 603.7654 603.5201 603.2469 602.9659 602.5109 601.9233 602.2805 602.7587 603.2964 604.1044 605.465 606.8085 607.7228 608.229 608.7225 609.2625 609.7649 610.2932 610.9501 611.3347 611.6528 611.8708 612.113 612.3769 612.6183 612.9066 613.1911 613.4723 613.7435 614.1078 614.5846 614.9582 615.3655 615.7611 616.1074 616.386 616.6299 616.8746 617.0716 617.3041 617.4837 617.76 617.9232 618.1343 618.2615 618.4441 618.6528 618.9254 619.1077 619.3167 619.5519 619.7826 620.1083 620.4597 620.585 620.9625 621.1343 621.3321 621.5034 621.738 621.9728 622.2007 622.4123 622.5765 622.7351 622.8198 622.8434 622.9183 623.0304 623.2123 623.6483 624.0515 624.3452 624.4073 624.1926 623.8467 623.8614 624.0654 624.287 624.4895 624.76 624.9728 625.2936 625.6419 625.9406 626.1448 626.3099 626.5175 626.7498 626.9009 626.9667 627.0056 627.0054 627.2367 627.5585 627.7798 627.8857 628.0189 628.0461 628.1282 628.3483 628.4362 628.5813 628.5886 628.7891 628.9483 629.0295 629.2908 629.4185 629.3776 629.3816 629.3361 629.3522 629.4422 629.5114 629.6144 629.6017 629.6503 629.7866 629.8059 629.808 629.8305 629.9167 630.0023 629.6262 629.5603 629.8498 630.2141 630.0712 629.7695 629.7578 629.7108
